6.750636100769042969e-01 6.770417690277099609e-01 6.699461340904235840e-01 6.589866876602172852e-01 6.479328274726867676e-01 6.362285614013671875e-01 6.197686195373535156e-01 6.020475625991821289e-01 5.820023417472839355e-01 5.669073462486267090e-01 5.581015944480895996e-01 5.519676804542541504e-01 5.456171631813049316e-01 5.414964556694030762e-01 5.347852706909179688e-01 5.323926806449890137e-01 5.520970225334167480e-01 5.713426470756530762e-01 5.831272602081298828e-01 5.872307419776916504e-01 5.851040482521057129e-01 5.775255560874938965e-01 5.676384568214416504e-01 5.581423044204711914e-01 5.541613698005676270e-01 5.731994509696960449e-01 5.922133922576904297e-01 6.071044206619262695e-01 6.202266216278076172e-01 6.344546079635620117e-01 6.489939689636230469e-01 6.627914309501647949e-01 6.723895668983459473e-01 6.773113012313842773e-01 6.752671599388122559e-01 6.707644462585449219e-01 6.797269582748413086e-01 6.942818164825439453e-01 7.034677267074584961e-01 7.044986486434936523e-01 7.025554180145263672e-01 6.956914663314819336e-01 6.885864138603210449e-01 6.796278953552246094e-01 6.695418953895568848e-01 6.601098179817199707e-01 6.495506763458251953e-01 6.381116509437561035e-01 6.244525909423828125e-01 6.090404987335205078e-01 5.935336351394653320e-01 5.775504112243652344e-01 5.609136223793029785e-01 5.428501963615417480e-01 5.244970917701721191e-01 5.078811645507812500e-01 4.993989765644073486e-01 5.199860930442810059e-01 5.355088114738464355e-01 5.490680932998657227e-01 5.590049028396606445e-01 5.683403611183166504e-01 5.739925503730773926e-01 5.740216970443725586e-01 5.675674676895141602e-01 5.518282055854797363e-01 5.321955680847167969e-01 5.079049468040466309e-01 5.118678808212280273e-01 5.439412593841552734e-01 5.712284445762634277e-01 5.987263917922973633e-01 6.236594915390014648e-01 6.461917161941528320e-01 6.688485741615295410e-01 6.937355995178222656e-01 7.174133062362670898e-01 7.393862605094909668e-01 7.601622343063354492e-01 7.779730558395385742e-01 7.951171994209289551e-01 8.070243597030639648e-01 8.118178248405456543e-01 8.094775080680847168e-01 8.004270792007446289e-01 7.866703271865844727e-01 7.697982192039489746e-01 7.518544197082519531e-01 7.316867113113403320e-01 7.088593840599060059e-01 6.897672414779663086e-01 6.727268099784851074e-01 6.547005772590637207e-01 6.370922327041625977e-01 6.210632920265197754e-01 6.032110452651977539e-01 5.834681391716003418e-01 5.603442788124084473e-01 5.387417078018188477e-01 5.157824754714965820e-01 4.886272251605987549e-01 4.628343880176544189e-01 4.398596584796905518e-01 4.113582074642181396e-01 3.715463280677795410e-01 3.314018249511718750e-01 3.312757313251495361e-01 3.777523040771484375e-01 4.171278178691864014e-01 4.529029428958892822e-01 4.881306886672973633e-01 5.180871486663818359e-01 5.444976091384887695e-01 5.707650184631347656e-01 5.983368754386901855e-01 6.236422061920166016e-01 6.491608023643493652e-01 6.735285520553588867e-01 6.966470479965209961e-01
6.540634632110595703e-01 6.519523262977600098e-01 6.421289443969726562e-01 6.301926374435424805e-01 6.197859048843383789e-01 6.060962080955505371e-01 5.935001373291015625e-01 5.764816999435424805e-01 5.560087561607360840e-01 5.367786288261413574e-01 5.247900485992431641e-01 5.167139768600463867e-01 5.121496319770812988e-01 5.078850984573364258e-01 5.093016028404235840e-01 5.364817380905151367e-01 5.672355890274047852e-01 5.886558294296264648e-01 6.044689416885375977e-01 6.128149628639221191e-01 6.153823137283325195e-01 6.127331852912902832e-01 6.054480075836181641e-01 5.936943292617797852e-01 5.815166234970092773e-01 5.753401517868041992e-01 5.872869491577148438e-01 6.029897928237915039e-01 6.115678548812866211e-01 6.157934665679931641e-01 6.254189610481262207e-01 6.368494033813476562e-01 6.471437215805053711e-01 6.537792086601257324e-01 6.565969586372375488e-01 6.660546064376831055e-01 6.839713454246520996e-01 6.930563449859619141e-01 6.948936581611633301e-01 6.930084228515625000e-01 6.868380904197692871e-01 6.802245974540710449e-01 6.727286577224731445e-01 6.644266247749328613e-01 6.553671956062316895e-01 6.467747092247009277e-01 6.357817053794860840e-01 6.235308647155761719e-01 6.091568470001220703e-01 5.941174030303955078e-01 5.782800912857055664e-01 5.627250075340270996e-01 5.455137491226196289e-01 5.262292027473449707e-01 5.075334310531616211e-01 4.973198473453521729e-01 5.175333619117736816e-01 5.400745868682861328e-01 5.568930506706237793e-01 5.707603693008422852e-01 5.831438302993774414e-01 5.949068665504455566e-01 6.053510308265686035e-01 6.113541722297668457e-01 6.095968484878540039e-01 5.951803326606750488e-01 5.722002387046813965e-01 5.522490739822387695e-01 5.309553146362304688e-01 5.465818047523498535e-01 5.750663280487060547e-01 6.014285087585449219e-01 6.269078850746154785e-01 6.517029404640197754e-01 6.757193803787231445e-01 6.986760497093200684e-01 7.222067713737487793e-01 7.450474500656127930e-01 7.660370469093322754e-01 7.843573689460754395e-01 7.992909550666809082e-01 8.078840970993041992e-01 8.090314269065856934e-01 8.022961020469665527e-01 7.895133495330810547e-01 7.726412415504455566e-01 7.560259699821472168e-01 7.379597425460815430e-01 7.165247201919555664e-01 6.942194700241088867e-01 6.770299077033996582e-01 6.640763878822326660e-01 6.538102030754089355e-01 6.407496333122253418e-01 6.265255808830261230e-01 6.140116453170776367e-01 5.991616249084472656e-01 5.760374069213867188e-01 5.506632328033447266e-01 5.318363308906555176e-01 5.018376708030700684e-01 4.745357632637023926e-01 4.521329104900360107e-01 4.258514344692230225e-01 3.931928575038909912e-01 3.565507829189300537e-01 3.493510186672210693e-01 3.971074819564819336e-01 4.327172040939331055e-01 4.695916771888732910e-01 5.021961927413940430e-01 5.300912261009216309e-01 5.551944375038146973e-01 5.827875137329101562e-01 6.087100505828857422e-01 6.329675316810607910e-01 6.576985120773315430e-01 6.796289682388305664e-01 7.002798914909362793e-01
6.283246874809265137e-01 6.229633092880249023e-01 6.098843812942504883e-01 5.943404436111450195e-01 5.825132727622985840e-01 5.735972523689270020e-01 5.611009597778320312e-01 5.444760322570800781e-01 5.244553089141845703e-01 5.035082101821899414e-01 4.885573387145996094e-01 4.793443977832794189e-01 4.728072583675384521e-01 4.731603860855102539e-01 5.086566209793090820e-01 5.459180474281311035e-01 5.800341963768005371e-01 6.054887175559997559e-01 6.220621466636657715e-01 6.315373778343200684e-01 6.372230648994445801e-01 6.378594040870666504e-01 6.326904296875000000e-01 6.233161091804504395e-01 6.115624308586120605e-01 6.018032431602478027e-01 5.942763090133666992e-01 5.979336500167846680e-01 6.054328680038452148e-01 6.052054762840270996e-01 6.021469831466674805e-01 6.082416176795959473e-01 6.171944141387939453e-01 6.251307129859924316e-01 6.347529888153076172e-01 6.555959582328796387e-01 6.721200346946716309e-01 6.815834045410156250e-01 6.817618012428283691e-01 6.761744618415832520e-01 6.676368117332458496e-01 6.602445840835571289e-01 6.536980867385864258e-01 6.454659700393676758e-01 6.367049217224121094e-01 6.272602677345275879e-01 6.160013675689697266e-01 6.030445694923400879e-01 5.884533524513244629e-01 5.740854740142822266e-01 5.576439499855041504e-01 5.406550765037536621e-01 5.207684040069580078e-01 5.026257038116455078e-01 4.908263385295867920e-01 5.100287199020385742e-01 5.348937511444091797e-01 5.554434061050415039e-01 5.748479366302490234e-01 5.918425917625427246e-01 6.055424213409423828e-01 6.169627308845520020e-01 6.268660426139831543e-01 6.310855150222778320e-01 6.240777969360351562e-01 6.190461516380310059e-01 5.995688438415527344e-01 5.669855475425720215e-01 5.490475296974182129e-01 5.484876036643981934e-01 5.765624046325683594e-01 6.011831164360046387e-01 6.274040341377258301e-01 6.516643762588500977e-01 6.772198081016540527e-01 7.016055583953857422e-01 7.257592678070068359e-01 7.472281455993652344e-01 7.654137015342712402e-01 7.813273668289184570e-01 7.955579161643981934e-01 8.021991848945617676e-01 8.017552495002746582e-01 7.928265929222106934e-01 7.769677042961120605e-01 7.574932575225830078e-01 7.400835156440734863e-01 7.214918732643127441e-01 7.053951621055603027e-01 7.031063437461853027e-01 7.005389928817749023e-01 6.930949091911315918e-01 6.830575466156005859e-01 6.678864955902099609e-01 6.489435434341430664e-01 6.296398639678955078e-01 6.146944165229797363e-01 5.962858796119689941e-01 5.699276328086853027e-01 5.414406061172485352e-01 5.216087102890014648e-01 4.939183294773101807e-01 4.656143188476562500e-01 4.400748014450073242e-01 4.107755422592163086e-01 3.769159615039825439e-01 3.640449345111846924e-01 4.105171859264373779e-01 4.462490677833557129e-01 4.791371822357177734e-01 5.102539658546447754e-01 5.380880832672119141e-01 5.629473328590393066e-01 5.898247361183166504e-01 6.144454479217529297e-01 6.371726393699645996e-01 6.586602330207824707e-01 6.751781702041625977e-01 6.949397921562194824e-01
5.952481031417846680e-01 5.871460437774658203e-01 5.717170238494873047e-01 5.559918284416198730e-01 5.447250008583068848e-01 5.346407890319824219e-01 5.193371772766113281e-01 5.008327364921569824e-01 4.814026057720184326e-01 4.596393108367919922e-01 4.460274577140808105e-01 4.379340708255767822e-01 4.329593479633331299e-01 4.719547033309936523e-01 5.122051239013671875e-01 5.488911271095275879e-01 5.842583775520324707e-01 6.121728420257568359e-01 6.339461803436279297e-01 6.473112702369689941e-01 6.558781266212463379e-01 6.607530117034912109e-01 6.583586335182189941e-01 6.515242457389831543e-01 6.423711180686950684e-01 6.324911713600158691e-01 6.232497692108154297e-01 6.146649122238159180e-01 6.050815582275390625e-01 5.955132842063903809e-01 5.889931321144104004e-01 5.799441337585449219e-01 5.835020542144775391e-01 5.954779982566833496e-01 6.245653629302978516e-01 6.444905996322631836e-01 6.590591073036193848e-01 6.644377708435058594e-01 6.621140241622924805e-01 6.541705131530761719e-01 6.454663276672363281e-01 6.391630768775939941e-01 6.326245069503784180e-01 6.240612268447875977e-01 6.148990988731384277e-01 6.050220727920532227e-01 5.945929884910583496e-01 5.816009044647216797e-01 5.670056939125061035e-01 5.521507263183593750e-01 5.357441306114196777e-01 5.168948173522949219e-01 4.981489777565002441e-01 4.850289523601531982e-01 4.997225403785705566e-01 5.268677473068237305e-01 5.501310229301452637e-01 5.704407691955566406e-01 5.908488035202026367e-01 6.079126596450805664e-01 6.215980052947998047e-01 6.330212354660034180e-01 6.394347548484802246e-01 6.421505808830261230e-01 6.399241089820861816e-01 6.299436688423156738e-01 6.114392280578613281e-01 5.866275429725646973e-01 5.609860420227050781e-01 5.489466190338134766e-01 5.755390524864196777e-01 6.011787652969360352e-01 6.259446740150451660e-01 6.533190608024597168e-01 6.772878766059875488e-01 7.015468478202819824e-01 7.253971099853515625e-01 7.486727237701416016e-01 7.673335671424865723e-01 7.809154987335205078e-01 7.919592857360839844e-01 7.932791709899902344e-01 7.912912368774414062e-01 7.796553969383239746e-01 7.615141868591308594e-01 7.408776879310607910e-01 7.228193283081054688e-01 7.081841230392456055e-01 7.084777951240539551e-01 7.137858271598815918e-01 7.153896689414978027e-01 7.119939327239990234e-01 7.032684683799743652e-01 6.877144575119018555e-01 6.692525148391723633e-01 6.455557346343994141e-01 6.259273886680603027e-01 6.081252694129943848e-01 5.883257985115051270e-01 5.668832063674926758e-01 5.403859019279479980e-01 5.110394358634948730e-01 4.810757637023925781e-01 4.525840282440185547e-01 4.223515391349792480e-01 3.918048441410064697e-01 3.819862008094787598e-01 4.227280914783477783e-01 4.555877745151519775e-01 4.858296215534210205e-01 5.144867300987243652e-01 5.422737002372741699e-01 5.682578682899475098e-01 5.941818952560424805e-01 6.165137290954589844e-01 6.379141807556152344e-01 6.572225093841552734e-01 6.738370060920715332e-01 6.908305883407592773e-01
5.631573796272277832e-01 5.500074625015258789e-01 5.354983806610107422e-01 5.204030275344848633e-01 5.086029171943664551e-01 4.968878328800201416e-01 4.828886091709136963e-01 4.651725590229034424e-01 4.406887888908386230e-01 4.119318425655364990e-01 3.879885673522949219e-01 3.882156014442443848e-01 4.348745048046112061e-01 4.773027598857879639e-01 5.165190100669860840e-01 5.531293749809265137e-01 5.901396870613098145e-01 6.218546032905578613e-01 6.465023159980773926e-01 6.634075641632080078e-01 6.744002103805541992e-01 6.797734498977661133e-01 6.799572110176086426e-01 6.755388379096984863e-01 6.682590842247009277e-01 6.594609022140502930e-01 6.508767008781433105e-01 6.417246460914611816e-01 6.309348940849304199e-01 6.180047988891601562e-01 6.002891063690185547e-01 5.810456275939941406e-01 5.670439004898071289e-01 5.872538089752197266e-01 6.164121627807617188e-01 6.355439424514770508e-01 6.447010040283203125e-01 6.464857459068298340e-01 6.419906020164489746e-01 6.333639025688171387e-01 6.251127123832702637e-01 6.189103126525878906e-01 6.117861866950988770e-01 6.032020449638366699e-01 5.936676859855651855e-01 5.837214589118957520e-01 5.720741152763366699e-01 5.589418411254882812e-01 5.438469052314758301e-01 5.280276536941528320e-01 5.094651579856872559e-01 4.898984730243682861e-01 4.773986041545867920e-01 4.920622706413269043e-01 5.188111066818237305e-01 5.454136133193969727e-01 5.694411993026733398e-01 5.910347700119018555e-01 6.085507869720458984e-01 6.234040260314941406e-01 6.344820261001586914e-01 6.412966251373291016e-01 6.442297101020812988e-01 6.459924578666687012e-01 6.414976716041564941e-01 6.296885609626770020e-01 6.105152964591979980e-01 5.843336582183837891e-01 5.581578016281127930e-01 5.470779538154602051e-01 5.773882865905761719e-01 6.032788157463073730e-01 6.293768286705017090e-01 6.553621292114257812e-01 6.811888217926025391e-01 7.043520212173461914e-01 7.278236150741577148e-01 7.476825118064880371e-01 7.640841007232666016e-01 7.797980904579162598e-01 7.864815592765808105e-01 7.870627641677856445e-01 7.805457711219787598e-01 7.646656632423400879e-01 7.441765069961547852e-01 7.235529422760009766e-01 7.069942951202392578e-01 7.037398219108581543e-01 7.150466442108154297e-01 7.215253710746765137e-01 7.263426184654235840e-01 7.277209162712097168e-01 7.217938303947448730e-01 7.069489359855651855e-01 6.855863332748413086e-01 6.627514362335205078e-01 6.374918818473815918e-01 6.156161427497863770e-01 5.947695970535278320e-01 5.735172629356384277e-01 5.510888099670410156e-01 5.222216248512268066e-01 4.924056529998779297e-01 4.628974497318267822e-01 4.350723028182983398e-01 4.045414626598358154e-01 3.980922698974609375e-01 4.363698661327362061e-01 4.677338004112243652e-01 4.969040453433990479e-01 5.250303745269775391e-01 5.502888560295104980e-01 5.750522613525390625e-01 5.986953973770141602e-01 6.218613982200622559e-01 6.435648798942565918e-01 6.654333472251892090e-01 6.847024559974670410e-01 6.970358490943908691e-01
5.295096635818481445e-01 5.174090266227722168e-01 5.026769042015075684e-01 4.845482707023620605e-01 4.718005061149597168e-01 4.614723324775695801e-01 4.463640153408050537e-01 4.220870733261108398e-01 3.872376382350921631e-01 3.469111919403076172e-01 3.358497619628906250e-01 3.940162062644958496e-01 4.387956261634826660e-01 4.819020032882690430e-01 5.209067463874816895e-01 5.582193732261657715e-01 5.942060351371765137e-01 6.287275552749633789e-01 6.580076813697814941e-01 6.779516339302062988e-01 6.898140907287597656e-01 6.990259289741516113e-01 7.035834193229675293e-01 7.017478942871093750e-01 6.946720480918884277e-01 6.857672333717346191e-01 6.785259842872619629e-01 6.708974242210388184e-01 6.613965630531311035e-01 6.479068994522094727e-01 6.306945681571960449e-01 6.105106472969055176e-01 5.908455848693847656e-01 5.836717486381530762e-01 6.053049564361572266e-01 6.234678030014038086e-01 6.309172511100769043e-01 6.313089728355407715e-01 6.252344846725463867e-01 6.148724555969238281e-01 6.053932309150695801e-01 5.983476638793945312e-01 5.909662842750549316e-01 5.825529098510742188e-01 5.726978778839111328e-01 5.620453953742980957e-01 5.498665571212768555e-01 5.355210900306701660e-01 5.194693803787231445e-01 5.031431913375854492e-01 4.837191700935363770e-01 4.672430157661437988e-01 4.799609184265136719e-01 5.099613666534423828e-01 5.379500389099121094e-01 5.617330074310302734e-01 5.860985517501831055e-01 6.066169142723083496e-01 6.222300529479980469e-01 6.354426741600036621e-01 6.415513753890991211e-01 6.444718241691589355e-01 6.458187699317932129e-01 6.437119245529174805e-01 6.374212503433227539e-01 6.255868673324584961e-01 6.058548092842102051e-01 5.796998143196105957e-01 5.539447665214538574e-01 5.499231219291687012e-01 5.778693556785583496e-01 6.052094697952270508e-01 6.316314339637756348e-01 6.574513316154479980e-01 6.822882294654846191e-01 7.060340046882629395e-01 7.274776697158813477e-01 7.468411326408386230e-01 7.615408897399902344e-01 7.732206583023071289e-01 7.766845226287841797e-01 7.762906551361083984e-01 7.647254467010498047e-01 7.491378784179687500e-01 7.273346185684204102e-01 7.072851061820983887e-01 6.924639940261840820e-01 7.014127969741821289e-01 7.147630453109741211e-01 7.225728631019592285e-01 7.280250191688537598e-01 7.300749421119689941e-01 7.263891100883483887e-01 7.170255780220031738e-01 7.019478678703308105e-01 6.781476736068725586e-01 6.521515846252441406e-01 6.277312040328979492e-01 6.050062179565429688e-01 5.850907564163208008e-01 5.623167157173156738e-01 5.357311367988586426e-01 5.063965916633605957e-01 4.793591499328613281e-01 4.512803554534912109e-01 4.220776855945587158e-01 4.120694994926452637e-01 4.459590017795562744e-01 4.778014421463012695e-01 5.072192549705505371e-01 5.336131453514099121e-01 5.585624575614929199e-01 5.823150873184204102e-01 6.051053404808044434e-01 6.284543871879577637e-01 6.523897647857666016e-01 6.753453612327575684e-01 6.945895552635192871e-01 7.028515934944152832e-01
4.962154328823089600e-01 4.809997379779815674e-01 4.619511961936950684e-01 4.452084302902221680e-01 4.301152527332305908e-01 4.108861684799194336e-01 3.825407326221466064e-01 3.455949127674102783e-01 3.070586025714874268e-01 2.944293618202209473e-01 3.561407327651977539e-01 4.074954688549041748e-01 4.500451385974884033e-01 4.893907606601715088e-01 5.276647806167602539e-01 5.655416846275329590e-01 6.023992300033569336e-01 6.382392048835754395e-01 6.692810058593750000e-01 6.914445757865905762e-01 7.075394988059997559e-01 7.185890674591064453e-01 7.252284884452819824e-01 7.268593907356262207e-01 7.228459715843200684e-01 7.141721248626708984e-01 7.062008380889892578e-01 6.974477171897888184e-01 6.875735521316528320e-01 6.763834953308105469e-01 6.611126661300659180e-01 6.430964469909667969e-01 6.244327425956726074e-01 6.107866764068603516e-01 6.038812398910522461e-01 6.107527613639831543e-01 6.176242828369140625e-01 6.162561178207397461e-01 6.078081727027893066e-01 5.961536169052124023e-01 5.855649113655090332e-01 5.774650573730468750e-01 5.702699422836303711e-01 5.610833168029785156e-01 5.516912937164306641e-01 5.401805043220520020e-01 5.265646576881408691e-01 5.117158293724060059e-01 4.944750368595123291e-01 4.736273586750030518e-01 4.515372812747955322e-01 4.580971002578735352e-01 4.956965744495391846e-01 5.275840759277343750e-01 5.564851164817810059e-01 5.816355347633361816e-01 6.034297943115234375e-01 6.229424476623535156e-01 6.362397074699401855e-01 6.431695818901062012e-01 6.450660228729248047e-01 6.443969011306762695e-01 6.415596604347229004e-01 6.359398961067199707e-01 6.303414702415466309e-01 6.176974177360534668e-01 5.987645983695983887e-01 5.743467211723327637e-01 5.512949228286743164e-01 5.513586997985839844e-01 5.779082775115966797e-01 6.070654988288879395e-01 6.336053609848022461e-01 6.597394347190856934e-01 6.846087574958801270e-01 7.086629867553710938e-01 7.280470132827758789e-01 7.439682483673095703e-01 7.611535191535949707e-01 7.686328887939453125e-01 7.706056833267211914e-01 7.641215324401855469e-01 7.497490048408508301e-01 7.300652265548706055e-01 7.094193696975708008e-01 6.907156109809875488e-01 6.820572614669799805e-01 6.963778734207153320e-01 7.117124795913696289e-01 7.215679287910461426e-01 7.283936738967895508e-01 7.336191534996032715e-01 7.315847277641296387e-01 7.247283458709716797e-01 7.108959555625915527e-01 6.888181567192077637e-01 6.624426245689392090e-01 6.386449337005615234e-01 6.167926788330078125e-01 5.967510342597961426e-01 5.745420455932617188e-01 5.507655739784240723e-01 5.263780355453491211e-01 4.994378983974456787e-01 4.690918922424316406e-01 4.414217174053192139e-01 4.253477156162261963e-01 4.541262686252593994e-01 4.864630699157714844e-01 5.146377086639404297e-01 5.408356189727783203e-01 5.653507113456726074e-01 5.892338156700134277e-01 6.139290928840637207e-01 6.396260857582092285e-01 6.637138724327087402e-01 6.870499849319458008e-01 7.047426104545593262e-01 7.113943099975585938e-01
4.599441587924957275e-01 4.427387118339538574e-01 4.211610257625579834e-01 3.975085318088531494e-01 3.710404038429260254e-01 3.407578468322753906e-01 3.108694553375244141e-01 2.679644823074340820e-01 2.409097552299499512e-01 3.020244240760803223e-01 3.651057481765747070e-01 4.117502570152282715e-01 4.527966380119323730e-01 4.911765754222869873e-01 5.281757116317749023e-01 5.661744475364685059e-01 6.034791469573974609e-01 6.401947140693664551e-01 6.754289269447326660e-01 7.025878429412841797e-01 7.201784849166870117e-01 7.338447570800781250e-01 7.461118698120117188e-01 7.486734390258789062e-01 7.455843091011047363e-01 7.395088076591491699e-01 7.309469580650329590e-01 7.226175665855407715e-01 7.127668261528015137e-01 7.025038599967956543e-01 6.885882616043090820e-01 6.725012660026550293e-01 6.562341451644897461e-01 6.449571847915649414e-01 6.364807486534118652e-01 6.281787753105163574e-01 6.202766895294189453e-01 6.141031384468078613e-01 6.070654988288879395e-01 6.001684069633483887e-01 5.926054120063781738e-01 5.837596654891967773e-01 5.720276236534118652e-01 5.560718178749084473e-01 5.388613343238830566e-01 5.193721055984497070e-01 5.030956268310546875e-01 4.911127984523773193e-01 4.747079908847808838e-01 4.574578702449798584e-01 4.439941048622131348e-01 4.766080379486083984e-01 5.127279758453369141e-01 5.447674989700317383e-01 5.731295347213745117e-01 5.980013608932495117e-01 6.200785040855407715e-01 6.363161206245422363e-01 6.446314454078674316e-01 6.468139886856079102e-01 6.450966596603393555e-01 6.406270861625671387e-01 6.335927248001098633e-01 6.257331967353820801e-01 6.174981594085693359e-01 6.051524877548217773e-01 5.858369469642639160e-01 5.623437762260437012e-01 5.420877337455749512e-01 5.559680461883544922e-01 5.837441682815551758e-01 6.122070550918579102e-01 6.394059658050537109e-01 6.640669703483581543e-01 6.893294453620910645e-01 7.132756114006042480e-01 7.318434715270996094e-01 7.456744313240051270e-01 7.558162808418273926e-01 7.596603035926818848e-01 7.569257616996765137e-01 7.461345195770263672e-01 7.295128107070922852e-01 7.082734704017639160e-01 6.885003447532653809e-01 6.716465353965759277e-01 6.729494929313659668e-01 6.924427151679992676e-01 7.064754366874694824e-01 7.150290012359619141e-01 7.199907302856445312e-01 7.254382371902465820e-01 7.278102636337280273e-01 7.260590791702270508e-01 7.128003239631652832e-01 6.919180750846862793e-01 6.676613092422485352e-01 6.460890173912048340e-01 6.269600987434387207e-01 6.047983169555664062e-01 5.810366272926330566e-01 5.611560940742492676e-01 5.360932946205139160e-01 5.110758543014526367e-01 4.838748276233673096e-01 4.536102712154388428e-01 4.369431436061859131e-01 4.654248058795928955e-01 4.960749149322509766e-01 5.221344232559204102e-01 5.488597750663757324e-01 5.753899216651916504e-01 6.012998819351196289e-01 6.275370121002197266e-01 6.529763936996459961e-01 6.778388619422912598e-01 6.981964707374572754e-01 7.128734588623046875e-01 7.204771637916564941e-01
4.148209989070892334e-01 3.912268877029418945e-01 3.599544763565063477e-01 3.265939354896545410e-01 2.989316880702972412e-01 2.522298991680145264e-01 1.778860539197921753e-01 1.709608584642410278e-01 2.532128989696502686e-01 3.240125179290771484e-01 3.759495615959167480e-01 4.191489219665527344e-01 4.593917727470397949e-01 4.978873729705810547e-01 5.349485278129577637e-01 5.721343159675598145e-01 6.089013814926147461e-01 6.461452245712280273e-01 6.823721528053283691e-01 7.138496041297912598e-01 7.376155853271484375e-01 7.552826404571533203e-01 7.652133703231811523e-01 7.704287767410278320e-01 7.705379724502563477e-01 7.634419798851013184e-01 7.548830509185791016e-01 7.469871044158935547e-01 7.389690279960632324e-01 7.306089401245117188e-01 7.180521488189697266e-01 7.003008127212524414e-01 6.831296086311340332e-01 6.733610033988952637e-01 6.634281277656555176e-01 6.540357470512390137e-01 6.483352780342102051e-01 6.418507695198059082e-01 6.348124146461486816e-01 6.292316317558288574e-01 6.217176318168640137e-01 6.120777130126953125e-01 6.001381278038024902e-01 5.839257836341857910e-01 5.671423077583312988e-01 5.497300028800964355e-01 5.357314944267272949e-01 5.259571671485900879e-01 5.141581296920776367e-01 5.009419322013854980e-01 4.820969402790069580e-01 4.819524586200714111e-01 5.219420194625854492e-01 5.544031262397766113e-01 5.823255181312561035e-01 6.071786880493164062e-01 6.282756924629211426e-01 6.420028209686279297e-01 6.478776931762695312e-01 6.474917531013488770e-01 6.419963836669921875e-01 6.340971589088439941e-01 6.252027750015258789e-01 6.157059073448181152e-01 6.058983802795410156e-01 5.932136774063110352e-01 5.747625827789306641e-01 5.526775121688842773e-01 5.354633927345275879e-01 5.543916225433349609e-01 5.842043161392211914e-01 6.107009053230285645e-01 6.373041272163391113e-01 6.629424095153808594e-01 6.868698000907897949e-01 7.099396586418151855e-01 7.278452515602111816e-01 7.387164235115051270e-01 7.455839514732360840e-01 7.466429471969604492e-01 7.401700019836425781e-01 7.265048027038574219e-01 7.073117494583129883e-01 6.881886124610900879e-01 6.687206625938415527e-01 6.505199670791625977e-01 6.578123569488525391e-01 6.759283542633056641e-01 6.889557838439941406e-01 6.983430981636047363e-01 7.062523961067199707e-01 7.090211510658264160e-01 7.112465500831604004e-01 7.097948193550109863e-01 7.051483392715454102e-01 6.889085769653320312e-01 6.672782897949218750e-01 6.481522321701049805e-01 6.286536455154418945e-01 6.080279350280761719e-01 5.864250063896179199e-01 5.641691684722900391e-01 5.395881533622741699e-01 5.141065716743469238e-01 4.884175062179565430e-01 4.595427513122558594e-01 4.453921914100646973e-01 4.753338992595672607e-01 5.029417276382446289e-01 5.285306572914123535e-01 5.568079948425292969e-01 5.826203227043151855e-01 6.089943647384643555e-01 6.361225843429565430e-01 6.612783670425415039e-01 6.869930624961853027e-01 7.086179852485656738e-01 7.223361134529113770e-01 7.263999581336975098e-01
3.653244674205780029e-01 3.341572880744934082e-01 2.995752394199371338e-01 2.615390717983245850e-01 2.116836607456207275e-01 1.505553126335144043e-01 1.248694732785224915e-01 2.125225067138671875e-01 2.631227076053619385e-01 3.324258923530578613e-01 3.816489279270172119e-01 4.222074151039123535e-01 4.604017734527587891e-01 4.991917908191680908e-01 5.382538437843322754e-01 5.750612616539001465e-01 6.114143729209899902e-01 6.489641070365905762e-01 6.859952807426452637e-01 7.208486795425415039e-01 7.489826083183288574e-01 7.700251936912536621e-01 7.826447486877441406e-01 7.909359335899353027e-01 7.931653261184692383e-01 7.883422970771789551e-01 7.818278670310974121e-01 7.748428583145141602e-01 7.662420868873596191e-01 7.586553096771240234e-01 7.490042448043823242e-01 7.356482148170471191e-01 7.180229425430297852e-01 7.009375095367431641e-01 6.918208003044128418e-01 6.826157569885253906e-01 6.734435558319091797e-01 6.669842600822448730e-01 6.603534221649169922e-01 6.538141369819641113e-01 6.465513110160827637e-01 6.385919451713562012e-01 6.266347169876098633e-01 6.113152503967285156e-01 5.927672386169433594e-01 5.788703560829162598e-01 5.693752765655517578e-01 5.593234300613403320e-01 5.500330328941345215e-01 5.360208749771118164e-01 5.184799432754516602e-01 5.059090852737426758e-01 5.371649265289306641e-01 5.677790045738220215e-01 5.957878828048706055e-01 6.193225383758544922e-01 6.378273367881774902e-01 6.474568247795104980e-01 6.496368050575256348e-01 6.449363231658935547e-01 6.353431940078735352e-01 6.231842041015625000e-01 6.121526956558227539e-01 6.008458137512207031e-01 5.897653102874755859e-01 5.746656060218811035e-01 5.551522374153137207e-01 5.333064794540405273e-01 5.346379280090332031e-01 5.624143481254577637e-01 5.909731388092041016e-01 6.184383034706115723e-01 6.431919336318969727e-01 6.671359539031982422e-01 6.915346980094909668e-01 7.092085480690002441e-01 7.236880660057067871e-01 7.318510413169860840e-01 7.341048717498779297e-01 7.296702861785888672e-01 7.171297073364257812e-01 6.989330053329467773e-01 6.805254817008972168e-01 6.607894301414489746e-01 6.398808360099792480e-01 6.268483996391296387e-01 6.415355205535888672e-01 6.564304828643798828e-01 6.681149601936340332e-01 6.776986718177795410e-01 6.872456669807434082e-01 6.955156326293945312e-01 7.009000182151794434e-01 7.002211809158325195e-01 6.926134824752807617e-01 6.783779263496398926e-01 6.593657732009887695e-01 6.412667036056518555e-01 6.216012835502624512e-01 5.999807119369506836e-01 5.784339904785156250e-01 5.555853843688964844e-01 5.318759679794311523e-01 5.053848028182983398e-01 4.787123501300811768e-01 4.514976441860198975e-01 4.583997726440429688e-01 4.862252771854400635e-01 5.116347074508666992e-01 5.365808010101318359e-01 5.637497901916503906e-01 5.903144478797912598e-01 6.150155067443847656e-01 6.416255831718444824e-01 6.668098568916320801e-01 6.905275583267211914e-01 7.122421860694885254e-01 7.278516888618469238e-01 7.335560917854309082e-01
2.948866188526153564e-01 2.550332844257354736e-01 2.220125496387481689e-01 1.952439248561859131e-01 2.173250019550323486e-01 2.429650723934173584e-01 2.647009789943695068e-01 2.854945957660675049e-01 2.982546389102935791e-01 3.415595591068267822e-01 3.889993131160736084e-01 4.292435944080352783e-01 4.683604240417480469e-01 5.082544684410095215e-01 5.455263853073120117e-01 5.825791954994201660e-01 6.200936436653137207e-01 6.554266214370727539e-01 6.926141977310180664e-01 7.279198169708251953e-01 7.584034800529479980e-01 7.838932871818542480e-01 7.991706132888793945e-01 8.097012639045715332e-01 8.132566213607788086e-01 8.108532428741455078e-01 8.050965666770935059e-01 7.994988560676574707e-01 7.935007810592651367e-01 7.874172925949096680e-01 7.785088419914245605e-01 7.672517299652099609e-01 7.537742853164672852e-01 7.384310364723205566e-01 7.242325544357299805e-01 7.111737728118896484e-01 7.011594772338867188e-01 6.922722458839416504e-01 6.857459545135498047e-01 6.797601580619812012e-01 6.721773147583007812e-01 6.643866300582885742e-01 6.540458202362060547e-01 6.416645050048828125e-01 6.250445842742919922e-01 6.107120513916015625e-01 6.025794148445129395e-01 5.949655771255493164e-01 5.871291160583496094e-01 5.750136971473693848e-01 5.587418675422668457e-01 5.422073602676391602e-01 5.452247858047485352e-01 5.756990313529968262e-01 6.025422811508178711e-01 6.235610842704772949e-01 6.408750414848327637e-01 6.523011326789855957e-01 6.519591808319091797e-01 6.459304690361022949e-01 6.340503692626953125e-01 6.192962527275085449e-01 6.052480340003967285e-01 5.929337143898010254e-01 5.804889202117919922e-01 5.628608465194702148e-01 5.426127314567565918e-01 5.216522812843322754e-01 5.338325500488281250e-01 5.635403990745544434e-01 5.909817814826965332e-01 6.177453398704528809e-01 6.452018618583679199e-01 6.678944230079650879e-01 6.903639435768127441e-01 7.073085308074951172e-01 7.187036275863647461e-01 7.248886823654174805e-01 7.250080108642578125e-01 7.181274890899658203e-01 7.019377946853637695e-01 6.834517121315002441e-01 6.642205119132995605e-01 6.429977416992187500e-01 6.221050024032592773e-01 6.086455583572387695e-01 6.234984397888183594e-01 6.373855471611022949e-01 6.470308899879455566e-01 6.560590267181396484e-01 6.644399166107177734e-01 6.741493940353393555e-01 6.803676486015319824e-01 6.796199679374694824e-01 6.787922978401184082e-01 6.676209568977355957e-01 6.503044962882995605e-01 6.323773264884948730e-01 6.103452444076538086e-01 5.910221338272094727e-01 5.683977007865905762e-01 5.440230965614318848e-01 5.187199115753173828e-01 4.927699565887451172e-01 4.614290893077850342e-01 4.386727511882781982e-01 4.631885886192321777e-01 4.890661239624023438e-01 5.139300227165222168e-01 5.403026342391967773e-01 5.654389858245849609e-01 5.901252627372741699e-01 6.149801611900329590e-01 6.405525207519531250e-01 6.649551987648010254e-01 6.911199092864990234e-01 7.136503458023071289e-01 7.300850749015808105e-01 7.387802004814147949e-01
2.307848036289215088e-01 2.045004665851593018e-01 2.157597243785858154e-01 2.574802935123443604e-01 2.911723256111145020e-01 3.188201487064361572e-01 3.485381007194519043e-01 3.697576224803924561e-01 3.764327764511108398e-01 3.706804513931274414e-01 3.951580822467803955e-01 4.368177652359008789e-01 4.769233167171478271e-01 5.151591300964355469e-01 5.523481965065002441e-01 5.885199904441833496e-01 6.254978775978088379e-01 6.631535887718200684e-01 7.010387778282165527e-01 7.357750535011291504e-01 7.694148421287536621e-01 7.958530187606811523e-01 8.137676119804382324e-01 8.242478370666503906e-01 8.287851214408874512e-01 8.277027010917663574e-01 8.231661319732666016e-01 8.183121085166931152e-01 8.138518929481506348e-01 8.082613945007324219e-01 8.003654479980468750e-01 7.912998795509338379e-01 7.816289663314819336e-01 7.688894271850585938e-01 7.555564641952514648e-01 7.401872873306274414e-01 7.252331972122192383e-01 7.138643860816955566e-01 7.061424851417541504e-01 6.987841725349426270e-01 6.925338506698608398e-01 6.855481266975402832e-01 6.767910122871398926e-01 6.649303436279296875e-01 6.517112255096435547e-01 6.383451223373413086e-01 6.314566731452941895e-01 6.249411702156066895e-01 6.148068904876708984e-01 6.055085062980651855e-01 5.882638096809387207e-01 5.736181735992431641e-01 5.663819909095764160e-01 5.917755961418151855e-01 6.169767975807189941e-01 6.339198946952819824e-01 6.494213342666625977e-01 6.547189354896545410e-01 6.513826251029968262e-01 6.419657468795776367e-01 6.273474693298339844e-01 6.113185286521911621e-01 5.946726202964782715e-01 5.781637430191040039e-01 5.624125599861145020e-01 5.416802167892456055e-01 5.184554457664489746e-01 5.111792683601379395e-01 5.407447814941406250e-01 5.692109465599060059e-01 5.962296128273010254e-01 6.234829425811767578e-01 6.495150327682495117e-01 6.717816591262817383e-01 6.899611353874206543e-01 7.047299742698669434e-01 7.133383154869079590e-01 7.167697548866271973e-01 7.131372094154357910e-01 6.993956565856933594e-01 6.818302273750305176e-01 6.628537774085998535e-01 6.440271735191345215e-01 6.228728890419006348e-01 5.996546149253845215e-01 5.893703699111938477e-01 6.040192842483520508e-01 6.163141131401062012e-01 6.258481144905090332e-01 6.346791386604309082e-01 6.442466378211975098e-01 6.526653766632080078e-01 6.591268777847290039e-01 6.603657007217407227e-01 6.545798182487487793e-01 6.434066891670227051e-01 6.304408907890319824e-01 6.147964000701904297e-01 5.945346355438232422e-01 5.721188187599182129e-01 5.482894182205200195e-01 5.235162973403930664e-01 4.990760982036590576e-01 4.701919853687286377e-01 4.396254718303680420e-01 4.343837201595306396e-01 4.623180329799652100e-01 4.871560037136077881e-01 5.121986269950866699e-01 5.367278456687927246e-01 5.635021924972534180e-01 5.871399044990539551e-01 6.121429204940795898e-01 6.363485455513000488e-01 6.627896428108215332e-01 6.883882880210876465e-01 7.124990820884704590e-01 7.311065793037414551e-01 7.427662014961242676e-01
2.129722088575363159e-01 2.601809799671173096e-01 2.989821434020996094e-01 3.320468366146087646e-01 3.632673621177673340e-01 3.907926678657531738e-01 4.147258698940277100e-01 4.316188991069793701e-01 4.230444729328155518e-01 4.230848252773284912e-01 4.117225110530853271e-01 4.464576840400695801e-01 4.866360425949096680e-01 5.233782529830932617e-01 5.618432760238647461e-01 5.977481007575988770e-01 6.336017251014709473e-01 6.710278987884521484e-01 7.083325982093811035e-01 7.439109683036804199e-01 7.780234813690185547e-01 8.047755360603332520e-01 8.234525918960571289e-01 8.352890610694885254e-01 8.401125073432922363e-01 8.405780196189880371e-01 8.373782634735107422e-01 8.286878466606140137e-01 8.235123753547668457e-01 8.204625248908996582e-01 8.199382424354553223e-01 8.133431077003479004e-01 8.049971461296081543e-01 7.943335175514221191e-01 7.824847698211669922e-01 7.681378126144409180e-01 7.504008412361145020e-01 7.358034849166870117e-01 7.259614467620849609e-01 7.184920907020568848e-01 7.116706967353820801e-01 7.062051892280578613e-01 6.996183395385742188e-01 6.901823282241821289e-01 6.788380742073059082e-01 6.665493249893188477e-01 6.588450670242309570e-01 6.542191505432128906e-01 6.488484144210815430e-01 6.372929811477661133e-01 6.220174431800842285e-01 6.020021438598632812e-01 5.861461162567138672e-01 6.045305728912353516e-01 6.295447945594787598e-01 6.479043364524841309e-01 6.566340923309326172e-01 6.596651673316955566e-01 6.538573503494262695e-01 6.406649351119995117e-01 6.255360841751098633e-01 6.087493300437927246e-01 5.906881093978881836e-01 5.712316632270812988e-01 5.493718385696411133e-01 5.256425738334655762e-01 5.012874603271484375e-01 5.196895599365234375e-01 5.484144091606140137e-01 5.759451389312744141e-01 6.029177308082580566e-01 6.288331151008605957e-01 6.539362668991088867e-01 6.716181039810180664e-01 6.887038946151733398e-01 7.035174965858459473e-01 7.103385329246520996e-01 7.113352417945861816e-01 7.044067978858947754e-01 6.879706382751464844e-01 6.687278747558593750e-01 6.490520238876342773e-01 6.281690001487731934e-01 6.054325103759765625e-01 5.826833844184875488e-01 5.738523602485656738e-01 5.909932851791381836e-01 6.026154160499572754e-01 6.122701168060302734e-01 6.210009455680847168e-01 6.285917162895202637e-01 6.332716941833496094e-01 6.324879527091979980e-01 6.244140267372131348e-01 6.160802841186523438e-01 6.111249923706054688e-01 6.015055775642395020e-01 5.863097310066223145e-01 5.678614974021911621e-01 5.447066426277160645e-01 5.221772789955139160e-01 5.016917586326599121e-01 4.758855700492858887e-01 4.387945234775543213e-01 4.114000201225280762e-01 4.364329278469085693e-01 4.616460204124450684e-01 4.870457351207733154e-01 5.120909214019775391e-01 5.376427173614501953e-01 5.636067390441894531e-01 5.889877080917358398e-01 6.117995381355285645e-01 6.361207962036132812e-01 6.606953740119934082e-01 6.870514154434204102e-01 7.130002975463867188e-01 7.328101992607116699e-01 7.456783652305603027e-01
2.891508638858795166e-01 3.263236880302429199e-01 3.614022731781005859e-01 3.971337974071502686e-01 4.233774244785308838e-01 4.467459619045257568e-01 4.668527841567993164e-01 4.848552942276000977e-01 4.829610288143157959e-01 4.731005728244781494e-01 4.507070779800415039e-01 4.576812982559204102e-01 4.988033473491668701e-01 5.385305285453796387e-01 5.759664177894592285e-01 6.128286719322204590e-01 6.477782130241394043e-01 6.834917068481445312e-01 7.209553122520446777e-01 7.556638717651367188e-01 7.893346548080444336e-01 8.153296113014221191e-01 8.330121636390686035e-01 8.456482291221618652e-01 8.505307435989379883e-01 8.515187501907348633e-01 8.496335148811340332e-01 8.465508818626403809e-01 8.417970538139343262e-01 8.324720263481140137e-01 8.281549215316772461e-01 8.273996710777282715e-01 8.209814429283142090e-01 8.100067973136901855e-01 7.952538132667541504e-01 7.803184390068054199e-01 7.648728489875793457e-01 7.493656277656555176e-01 7.382934093475341797e-01 7.309772372245788574e-01 7.247946858406066895e-01 7.195154428482055664e-01 7.135195732116699219e-01 7.062430381774902344e-01 6.943369507789611816e-01 6.780759692192077637e-01 6.701886653900146484e-01 6.658477783203125000e-01 6.594266295433044434e-01 6.503823399543762207e-01 6.402653455734252930e-01 6.233081817626953125e-01 6.103423833847045898e-01 6.233117580413818359e-01 6.430921554565429688e-01 6.574113368988037109e-01 6.621320247650146484e-01 6.598093509674072266e-01 6.505329608917236328e-01 6.347234249114990234e-01 6.179612278938293457e-01 6.006775498390197754e-01 5.821493268013000488e-01 5.620681047439575195e-01 5.380030274391174316e-01 5.144942998886108398e-01 5.022149682044982910e-01 5.317015647888183594e-01 5.601763725280761719e-01 5.860474109649658203e-01 6.128279566764831543e-01 6.397756338119506836e-01 6.636515259742736816e-01 6.824114322662353516e-01 6.951920390129089355e-01 7.021781206130981445e-01 7.051609754562377930e-01 7.016134858131408691e-01 6.896465420722961426e-01 6.698611378669738770e-01 6.499315500259399414e-01 6.302805542945861816e-01 6.082250475883483887e-01 5.823251605033874512e-01 5.596805214881896973e-01 5.588272809982299805e-01 5.763076543807983398e-01 5.875636935234069824e-01 5.969481468200683594e-01 6.048444509506225586e-01 6.096750497817993164e-01 6.074135899543762207e-01 5.950376391410827637e-01 5.804067850112915039e-01 5.713689327239990234e-01 5.655488967895507812e-01 5.590398907661437988e-01 5.462726354598999023e-01 5.289421677589416504e-01 5.109428763389587402e-01 4.936124086380004883e-01 4.677521884441375732e-01 4.330681562423706055e-01 3.982472121715545654e-01 4.049681127071380615e-01 4.353764355182647705e-01 4.614089131355285645e-01 4.873858988285064697e-01 5.118509531021118164e-01 5.366489291191101074e-01 5.636924505233764648e-01 5.889877080917358398e-01 6.126470565795898438e-01 6.353864669799804688e-01 6.593358516693115234e-01 6.841341853141784668e-01 7.103003263473510742e-01 7.337946295738220215e-01 7.471578717231750488e-01
3.575240373611450195e-01 3.930000662803649902e-01 4.249354898929595947e-01 4.514990746974945068e-01 4.767525196075439453e-01 4.988732337951660156e-01 5.171269178390502930e-01 5.213831067085266113e-01 5.248329043388366699e-01 5.132821798324584961e-01 4.855619072914123535e-01 4.731737077236175537e-01 5.145800709724426270e-01 5.547476410865783691e-01 5.893249511718750000e-01 6.269233822822570801e-01 6.610182523727416992e-01 6.972243189811706543e-01 7.339950203895568848e-01 7.683832049369812012e-01 8.011009097099304199e-01 8.233678936958312988e-01 8.401705026626586914e-01 8.516041636466979980e-01 8.556589484214782715e-01 8.545714616775512695e-01 8.513605594635009766e-01 8.474866747856140137e-01 8.437474966049194336e-01 8.402472734451293945e-01 8.364803194999694824e-01 8.320295214653015137e-01 8.281956315040588379e-01 8.184007406234741211e-01 8.055570721626281738e-01 7.894852757453918457e-01 7.726012468338012695e-01 7.567560076713562012e-01 7.455555200576782227e-01 7.372718453407287598e-01 7.276564240455627441e-01 7.226777076721191406e-01 7.177321910858154297e-01 7.086572647094726562e-01 6.997289657592773438e-01 6.941733956336975098e-01 6.874622106552124023e-01 6.845658421516418457e-01 6.794920563697814941e-01 6.692817211151123047e-01 6.545568108558654785e-01 6.378680467605590820e-01 6.267900466918945312e-01 6.400076746940612793e-01 6.538479924201965332e-01 6.661947369575500488e-01 6.680046916007995605e-01 6.621893048286437988e-01 6.498465538024902344e-01 6.327088475227355957e-01 6.154395937919616699e-01 5.991793274879455566e-01 5.828361511230468750e-01 5.641284584999084473e-01 5.434173941612243652e-01 5.239688754081726074e-01 5.118307471275329590e-01 5.418938994407653809e-01 5.714936256408691406e-01 5.973185896873474121e-01 6.244291663169860840e-01 6.491449475288391113e-01 6.723459362983703613e-01 6.888073086738586426e-01 6.987960338592529297e-01 7.037001848220825195e-01 7.025871276855468750e-01 6.936840415000915527e-01 6.771909594535827637e-01 6.570664644241333008e-01 6.372749209403991699e-01 6.155109405517578125e-01 5.919229388236999512e-01 5.641717314720153809e-01 5.438425540924072266e-01 5.448745489120483398e-01 5.625113248825073242e-01 5.739323496818542480e-01 5.810294151306152344e-01 5.859371423721313477e-01 5.846349000930786133e-01 5.766687393188476562e-01 5.620659589767456055e-01 5.423997640609741211e-01 5.219610929489135742e-01 5.132497549057006836e-01 5.120635032653808594e-01 5.054997205734252930e-01 4.917646348476409912e-01 4.769384562969207764e-01 4.536747634410858154e-01 4.159531593322753906e-01 3.791345357894897461e-01 3.584969341754913330e-01 3.985779881477355957e-01 4.342132806777954102e-01 4.639867246150970459e-01 4.906663596630096436e-01 5.155313611030578613e-01 5.412164926528930664e-01 5.665434002876281738e-01 5.917600989341735840e-01 6.153913140296936035e-01 6.396985054016113281e-01 6.640817523002624512e-01 6.897383928298950195e-01 7.154620885848999023e-01 7.378757596015930176e-01 7.520858049392700195e-01
4.089720845222473145e-01 4.380075633525848389e-01 4.664535522460937500e-01 4.912962019443511963e-01 5.154477357864379883e-01 5.376455783843994141e-01 5.518469214439392090e-01 5.553075671195983887e-01 5.518260598182678223e-01 5.424228310585021973e-01 5.135797858238220215e-01 4.899846017360687256e-01 5.248437523841857910e-01 5.630971789360046387e-01 5.989825725555419922e-01 6.362955570220947266e-01 6.718238592147827148e-01 7.072335481643676758e-01 7.433819770812988281e-01 7.777262330055236816e-01 8.089726567268371582e-01 8.313506841659545898e-01 8.483741283416748047e-01 8.602275848388671875e-01 8.649612665176391602e-01 8.633369207382202148e-01 8.595224022865295410e-01 8.546050190925598145e-01 8.505253195762634277e-01 8.468204140663146973e-01 8.418366909027099609e-01 8.362292051315307617e-01 8.295504450798034668e-01 8.195419311523437500e-01 8.053257465362548828e-01 7.881613969802856445e-01 7.711721658706665039e-01 7.568785548210144043e-01 7.473870515823364258e-01 7.416574358940124512e-01 7.362092137336730957e-01 7.315058112144470215e-01 7.266413569450378418e-01 7.197601199150085449e-01 7.094895839691162109e-01 6.982443928718566895e-01 6.909549236297607422e-01 6.875494122505187988e-01 6.831793189048767090e-01 6.746675968170166016e-01 6.601815223693847656e-01 6.444044709205627441e-01 6.379696726799011230e-01 6.545873880386352539e-01 6.660279035568237305e-01 6.745314002037048340e-01 6.725643277168273926e-01 6.629993319511413574e-01 6.485929489135742188e-01 6.331152915954589844e-01 6.190875768661499023e-01 6.040401458740234375e-01 5.890107750892639160e-01 5.729803442955017090e-01 5.570717453956604004e-01 5.386927127838134766e-01 5.239717364311218262e-01 5.483409166336059570e-01 5.784357786178588867e-01 6.088858842849731445e-01 6.361225843429565430e-01 6.597405076026916504e-01 6.797658801078796387e-01 6.934083700180053711e-01 7.007696032524108887e-01 7.024004459381103516e-01 6.972484588623046875e-01 6.910363435745239258e-01 6.853867173194885254e-01 6.725531816482543945e-01 6.540551781654357910e-01 6.341876387596130371e-01 6.147917509078979492e-01 5.935286283493041992e-01 5.722546577453613281e-01 5.526655912399291992e-01 5.536219477653503418e-01 5.617459416389465332e-01 5.661254525184631348e-01 5.644614100456237793e-01 5.574861168861389160e-01 5.432263612747192383e-01 5.181494951248168945e-01 4.917408525943756104e-01 4.708632826805114746e-01 4.646691977977752686e-01 4.664960503578186035e-01 4.625900685787200928e-01 4.413881897926330566e-01 4.142343699932098389e-01 3.881737887859344482e-01 3.634572327136993408e-01 3.199631273746490479e-01 3.220407962799072266e-01 3.784498870372772217e-01 4.195716083049774170e-01 4.548062086105346680e-01 4.881793558597564697e-01 5.181949138641357422e-01 5.441099405288696289e-01 5.709034204483032227e-01 5.961640477180480957e-01 6.205663681030273438e-01 6.459524631500244141e-01 6.713932752609252930e-01 6.960344910621643066e-01 7.213466763496398926e-01 7.453068494796752930e-01 7.631396651268005371e-01
4.481977224349975586e-01 4.757010638713836670e-01 5.021327733993530273e-01 5.275714397430419922e-01 5.495840907096862793e-01 5.676106810569763184e-01 5.805819034576416016e-01 5.819489955902099609e-01 5.763271450996398926e-01 5.589202642440795898e-01 5.275772213935852051e-01 5.000334978103637695e-01 5.322737693786621094e-01 5.697337985038757324e-01 6.061394810676574707e-01 6.413268446922302246e-01 6.770251989364624023e-01 7.132294774055480957e-01 7.476782202720642090e-01 7.812131047248840332e-01 8.131424188613891602e-01 8.379793167114257812e-01 8.518772721290588379e-01 8.594705462455749512e-01 8.607205152511596680e-01 8.578667044639587402e-01 8.526358008384704590e-01 8.462849259376525879e-01 8.412860631942749023e-01 8.365599513053894043e-01 8.306419253349304199e-01 8.240193724632263184e-01 8.165039420127868652e-01 8.069674372673034668e-01 7.918537259101867676e-01 7.754417061805725098e-01 7.579706907272338867e-01 7.439992427825927734e-01 7.369853854179382324e-01 7.310031652450561523e-01 7.258158326148986816e-01 7.209758758544921875e-01 7.160025835037231445e-01 7.083405256271362305e-01 6.973161697387695312e-01 6.862161755561828613e-01 6.792045235633850098e-01 6.760177612304687500e-01 6.721431016921997070e-01 6.639657616615295410e-01 6.524495482444763184e-01 6.418713331222534180e-01 6.496573686599731445e-01 6.638720631599426270e-01 6.711179614067077637e-01 6.727834343910217285e-01 6.681304574012756348e-01 6.559883952140808105e-01 6.419534683227539062e-01 6.305410861968994141e-01 6.187200546264648438e-01 6.042167544364929199e-01 5.908837914466857910e-01 5.808247923851013184e-01 5.666147470474243164e-01 5.464347600936889648e-01 5.284960865974426270e-01 5.427788496017456055e-01 5.754277110099792480e-01 6.056804060935974121e-01 6.344816684722900391e-01 6.572088003158569336e-01 6.734881997108459473e-01 6.850641965866088867e-01 6.921238303184509277e-01 7.036327719688415527e-01 7.099958658218383789e-01 7.087844610214233398e-01 7.016758322715759277e-01 6.884769201278686523e-01 6.706271767616271973e-01 6.517386436462402344e-01 6.327765583992004395e-01 6.127493977546691895e-01 5.917773842811584473e-01 5.688300728797912598e-01 5.468628406524658203e-01 5.326600670814514160e-01 5.295698642730712891e-01 5.207821130752563477e-01 5.151140689849853516e-01 5.281198620796203613e-01 5.327695608139038086e-01 5.308951139450073242e-01 5.260558724403381348e-01 5.199792981147766113e-01 5.092882513999938965e-01 4.955949485301971436e-01 4.797634482383728027e-01 4.570878148078918457e-01 4.340482652187347412e-01 4.074154794216156006e-01 3.784448504447937012e-01 3.520585298538208008e-01 3.766727447509765625e-01 4.041220545768737793e-01 4.216715991497039795e-01 4.619414806365966797e-01 4.984329342842102051e-01 5.299950242042541504e-01 5.572389364242553711e-01 5.847055315971374512e-01 6.114795804023742676e-01 6.377519965171813965e-01 6.646355986595153809e-01 6.896775364875793457e-01 7.140171527862548828e-01 7.361544370651245117e-01 7.516526579856872559e-01
4.854141473770141602e-01 5.104867219924926758e-01 5.358244776725769043e-01 5.611687302589416504e-01 5.813054442405700684e-01 5.958505868911743164e-01 6.012331843376159668e-01 6.001435518264770508e-01 5.948157310485839844e-01 5.703629255294799805e-01 5.350857973098754883e-01 5.066016316413879395e-01 5.373198390007019043e-01 5.762795805931091309e-01 6.124200224876403809e-01 6.483774781227111816e-01 6.828687191009521484e-01 7.176990509033203125e-01 7.520007491111755371e-01 7.848002314567565918e-01 8.143895268440246582e-01 8.355557322502136230e-01 8.477428555488586426e-01 8.526300191879272461e-01 8.523259162902832031e-01 8.472693562507629395e-01 8.401240110397338867e-01 8.330183029174804688e-01 8.255615830421447754e-01 8.187823295593261719e-01 8.106719851493835449e-01 8.039053678512573242e-01 7.960757017135620117e-01 7.843058705329895020e-01 7.690638303756713867e-01 7.522216439247131348e-01 7.339470982551574707e-01 7.239493131637573242e-01 7.175430059432983398e-01 7.123275995254516602e-01 7.080227136611938477e-01 7.037174701690673828e-01 6.972898840904235840e-01 6.890289187431335449e-01 6.769693493843078613e-01 6.646716594696044922e-01 6.571446657180786133e-01 6.533464193344116211e-01 6.486167311668395996e-01 6.413704752922058105e-01 6.321849226951599121e-01 6.399623155593872070e-01 6.568312048912048340e-01 6.663125753402709961e-01 6.690738201141357422e-01 6.669525504112243652e-01 6.593002080917358398e-01 6.475703120231628418e-01 6.375942230224609375e-01 6.266185045242309570e-01 6.142843961715698242e-01 6.025210022926330566e-01 5.955097079277038574e-01 5.877870917320251465e-01 5.723829269409179688e-01 5.506967902183532715e-01 5.285436511039733887e-01 5.323011279106140137e-01 5.614541172981262207e-01 5.921002626419067383e-01 6.222916841506958008e-01 6.462853550910949707e-01 6.621133089065551758e-01 6.819052100181579590e-01 7.038770914077758789e-01 7.187454104423522949e-01 7.239907383918762207e-01 7.208706736564636230e-01 7.115384340286254883e-01 6.974725723266601562e-01 6.797262430191040039e-01 6.627953648567199707e-01 6.450249552726745605e-01 6.270098090171813965e-01 6.084513664245605469e-01 5.853685140609741211e-01 5.610440373420715332e-01 5.349568128585815430e-01 5.093588829040527344e-01 4.997121095657348633e-01 5.259355306625366211e-01 5.417295694351196289e-01 5.531260967254638672e-01 5.593699216842651367e-01 5.600488185882568359e-01 5.567662119865417480e-01 5.482926368713378906e-01 5.329007506370544434e-01 5.246801376342773438e-01 5.093221068382263184e-01 4.855135977268218994e-01 4.615033268928527832e-01 4.452905952930450439e-01 4.623918831348419189e-01 4.782471656799316406e-01 4.771387875080108643e-01 4.679344892501831055e-01 4.644601941108703613e-01 4.588693082332611084e-01 4.904746413230895996e-01 5.250729322433471680e-01 5.559237599372863770e-01 5.831733942031860352e-01 6.128063201904296875e-01 6.417329907417297363e-01 6.681762337684631348e-01 6.919530034065246582e-01 7.141393423080444336e-01 7.291395664215087891e-01
5.176746249198913574e-01 5.432386398315429688e-01 5.665823221206665039e-01 5.896103382110595703e-01 6.063203215599060059e-01 6.134426593780517578e-01 6.196619868278503418e-01 6.147794723510742188e-01 5.989292263984680176e-01 5.709055662155151367e-01 5.359296798706054688e-01 5.097055435180664062e-01 5.424920320510864258e-01 5.787535905838012695e-01 6.154496669769287109e-01 6.512291431427001953e-01 6.847398877143859863e-01 7.168637514114379883e-01 7.503252029418945312e-01 7.820033431053161621e-01 8.049705028533935547e-01 8.235862851142883301e-01 8.346675038337707520e-01 8.352969884872436523e-01 8.353741168975830078e-01 8.291378617286682129e-01 8.212257027626037598e-01 8.123727440834045410e-01 8.031223416328430176e-01 7.932615280151367188e-01 7.838979363441467285e-01 7.717861533164978027e-01 7.675083279609680176e-01 7.569412589073181152e-01 7.428263425827026367e-01 7.256439924240112305e-01 7.086277008056640625e-01 6.958013772964477539e-01 6.863491535186767578e-01 6.868478655815124512e-01 6.820139884948730469e-01 6.768100857734680176e-01 6.713626384735107422e-01 6.633766293525695801e-01 6.509502530097961426e-01 6.377941966056823730e-01 6.276670694351196289e-01 6.224970221519470215e-01 6.192721128463745117e-01 6.149394512176513672e-01 6.282169222831726074e-01 6.463279128074645996e-01 6.600572466850280762e-01 6.664801239967346191e-01 6.661878824234008789e-01 6.596774458885192871e-01 6.499625444412231445e-01 6.397504210472106934e-01 6.302189230918884277e-01 6.193441748619079590e-01 6.079995036125183105e-01 6.001414060592651367e-01 5.962908864021301270e-01 5.884637832641601562e-01 5.736094713211059570e-01 5.518592000007629395e-01 5.294696688652038574e-01 5.328971147537231445e-01 5.618014335632324219e-01 5.897602438926696777e-01 6.156414151191711426e-01 6.410670876502990723e-01 6.670891046524047852e-01 6.916110515594482422e-01 7.085224986076354980e-01 7.224258780479431152e-01 7.295665144920349121e-01 7.272038459777832031e-01 7.151709198951721191e-01 6.990338563919067383e-01 6.828420162200927734e-01 6.671900153160095215e-01 6.494375467300415039e-01 6.332479119300842285e-01 6.159260272979736328e-01 5.936958193778991699e-01 5.702346563339233398e-01 5.436861515045166016e-01 5.185019373893737793e-01 5.003859400749206543e-01 5.215798616409301758e-01 5.420970916748046875e-01 5.588193535804748535e-01 5.689107775688171387e-01 5.738040804862976074e-01 5.727634429931640625e-01 5.743979215621948242e-01 5.680798888206481934e-01 5.568382740020751953e-01 5.430923700332641602e-01 5.236294269561767578e-01 5.049692988395690918e-01 5.034249424934387207e-01 5.146456360816955566e-01 5.189198851585388184e-01 5.166728496551513672e-01 5.092089772224426270e-01 4.998245239257812500e-01 4.893554747104644775e-01 4.874442517757415771e-01 5.065792798995971680e-01 5.205824971199035645e-01 5.425943732261657715e-01 5.670622587203979492e-01 5.950254201889038086e-01 6.240954995155334473e-01 6.516651511192321777e-01 6.724039912223815918e-01 6.899722814559936523e-01
5.474242568016052246e-01 5.718305706977844238e-01 5.956264734268188477e-01 6.127483248710632324e-01 6.282184123992919922e-01 6.336737871170043945e-01 6.298784017562866211e-01 6.186519861221313477e-01 5.996044874191284180e-01 5.715534687042236328e-01 5.370092391967773438e-01 5.145440697669982910e-01 5.474156141281127930e-01 5.837362408638000488e-01 6.172527670860290527e-01 6.532311439514160156e-01 6.862590909004211426e-01 7.174947261810302734e-01 7.496210932731628418e-01 7.758816480636596680e-01 7.940084934234619141e-01 8.081929087638854980e-01 8.150619268417358398e-01 8.167727589607238770e-01 8.161389231681823730e-01 8.067753911018371582e-01 7.972601056098937988e-01 7.873528003692626953e-01 7.762279510498046875e-01 7.671058177947998047e-01 7.572515010833740234e-01 7.489325404167175293e-01 7.383780479431152344e-01 7.256681323051452637e-01 7.106455564498901367e-01 6.948324441909790039e-01 6.809030771255493164e-01 6.720537543296813965e-01 6.664069890975952148e-01 6.596432328224182129e-01 6.530715227127075195e-01 6.471018791198730469e-01 6.385018825531005859e-01 6.329163908958435059e-01 6.194767355918884277e-01 6.058497428894042969e-01 5.928800106048583984e-01 5.866866111755371094e-01 5.877200365066528320e-01 6.098234653472900391e-01 6.316735744476318359e-01 6.480960249900817871e-01 6.582303643226623535e-01 6.624094843864440918e-01 6.601437330245971680e-01 6.525036096572875977e-01 6.422666311264038086e-01 6.319816708564758301e-01 6.219860911369323730e-01 6.122751832008361816e-01 6.046217679977416992e-01 5.988687276840209961e-01 5.926609039306640625e-01 5.830804705619812012e-01 5.682297348976135254e-01 5.474898219108581543e-01 5.282986164093017578e-01 5.374308228492736816e-01 5.650444030761718750e-01 5.910322070121765137e-01 6.159217357635498047e-01 6.418637633323669434e-01 6.681264638900756836e-01 6.924661397933959961e-01 7.129902243614196777e-01 7.265667915344238281e-01 7.314233183860778809e-01 7.270755767822265625e-01 7.137479782104492188e-01 6.967407464981079102e-01 6.819502115249633789e-01 6.674285531044006348e-01 6.514564752578735352e-01 6.355756521224975586e-01 6.183028221130371094e-01 5.971967577934265137e-01 5.743135809898376465e-01 5.479020476341247559e-01 5.207309126853942871e-01 4.995694160461425781e-01 5.114877223968505859e-01 5.365991592407226562e-01 5.567200779914855957e-01 5.715642571449279785e-01 5.822603106498718262e-01 5.894445776939392090e-01 5.930154919624328613e-01 5.899534225463867188e-01 5.801927447319030762e-01 5.718777775764465332e-01 5.581714510917663574e-01 5.525978803634643555e-01 5.577455759048461914e-01 5.581030249595642090e-01 5.534929633140563965e-01 5.470581650733947754e-01 5.402334928512573242e-01 5.326535701751708984e-01 5.323465466499328613e-01 5.432962775230407715e-01 5.503458380699157715e-01 5.555663108825683594e-01 5.614821910858154297e-01 5.658112168312072754e-01 5.690549015998840332e-01 5.773389339447021484e-01 5.857295989990234375e-01 6.041958332061767578e-01 6.190205812454223633e-01
5.740548968315124512e-01 5.944712162017822266e-01 6.181990504264831543e-01 6.340896487236022949e-01 6.422932744026184082e-01 6.410991549491882324e-01 6.335862278938293457e-01 6.192749738693237305e-01 5.979942083358764648e-01 5.713714957237243652e-01 5.402287840843200684e-01 5.210490822792053223e-01 5.534688234329223633e-01 5.877268910408020020e-01 6.203663945198059082e-01 6.546580195426940918e-01 6.869678497314453125e-01 7.170601487159729004e-01 7.441988587379455566e-01 7.638217806816101074e-01 7.799051403999328613e-01 7.904847860336303711e-01 7.951240539550781250e-01 7.958447337150573730e-01 7.869910597801208496e-01 7.785740494728088379e-01 7.682120203971862793e-01 7.575134634971618652e-01 7.482565641403198242e-01 7.379035353660583496e-01 7.278524637222290039e-01 7.172396183013916016e-01 7.052949666976928711e-01 6.927273869514465332e-01 6.781473159790039062e-01 6.628217101097106934e-01 6.494141221046447754e-01 6.402163505554199219e-01 6.348319053649902344e-01 6.274991631507873535e-01 6.214308142662048340e-01 6.155974268913269043e-01 6.086307764053344727e-01 5.986445546150207520e-01 5.856950283050537109e-01 5.703694224357604980e-01 5.558257102966308594e-01 5.586514472961425781e-01 5.893148779869079590e-01 6.121930480003356934e-01 6.323809027671813965e-01 6.476615071296691895e-01 6.552814245223999023e-01 6.566863656044006348e-01 6.524384021759033203e-01 6.438167691230773926e-01 6.344683170318603516e-01 6.254740953445434570e-01 6.164305210113525391e-01 6.074489355087280273e-01 5.997248291969299316e-01 5.927646756172180176e-01 5.848698616027832031e-01 5.747460126876831055e-01 5.583278536796569824e-01 5.384765267372131348e-01 5.225188732147216797e-01 5.373464822769165039e-01 5.630654692649841309e-01 5.874923467636108398e-01 6.124719381332397461e-01 6.374298930168151855e-01 6.617713570594787598e-01 6.829487085342407227e-01 7.002809643745422363e-01 7.146628499031066895e-01 7.225793600082397461e-01 7.191688418388366699e-01 7.073920965194702148e-01 6.905426979064941406e-01 6.755439043045043945e-01 6.627290844917297363e-01 6.482037901878356934e-01 6.317820549011230469e-01 6.143189668655395508e-01 5.941433310508728027e-01 5.726733803749084473e-01 5.478833317756652832e-01 5.205853581428527832e-01 4.954378604888916016e-01 4.940700232982635498e-01 5.225195884704589844e-01 5.471575856208801270e-01 5.653600692749023438e-01 5.806640386581420898e-01 5.925081372261047363e-01 5.992643237113952637e-01 5.992304682731628418e-01 5.950556993484497070e-01 5.877409577369689941e-01 5.734668374061584473e-01 5.761663913726806641e-01 5.856553912162780762e-01 5.863400101661682129e-01 5.858305096626281738e-01 5.826603174209594727e-01 5.826148986816406250e-01 5.831402540206909180e-01 5.811678171157836914e-01 5.756302475929260254e-01 5.688444972038269043e-01 5.683832764625549316e-01 5.718806385993957520e-01 5.758140087127685547e-01 5.803253650665283203e-01 5.877589583396911621e-01 5.970129966735839844e-01 6.050793528556823730e-01 6.112893223762512207e-01
6.013430953025817871e-01 6.218967437744140625e-01 6.402487754821777344e-01 6.509008407592773438e-01 6.515267491340637207e-01 6.465325951576232910e-01 6.339091062545776367e-01 6.153765320777893066e-01 5.912390351295471191e-01 5.640726089477539062e-01 5.347496271133422852e-01 5.282956957817077637e-01 5.595083236694335938e-01 5.922112464904785156e-01 6.244165301322937012e-01 6.554698348045349121e-01 6.855466961860656738e-01 7.138881683349609375e-01 7.329788804054260254e-01 7.535598874092102051e-01 7.665822505950927734e-01 7.722563743591308594e-01 7.722283005714416504e-01 7.636581659317016602e-01 7.562573552131652832e-01 7.472227215766906738e-01 7.380998730659484863e-01 7.269454598426818848e-01 7.163351774215698242e-01 7.048543095588684082e-01 6.937643885612487793e-01 6.828971505165100098e-01 6.723477840423583984e-01 6.599293351173400879e-01 6.462799906730651855e-01 6.290057301521301270e-01 6.154965162277221680e-01 6.097453236579895020e-01 6.018410921096801758e-01 5.959179401397705078e-01 5.899440050125122070e-01 5.828332304954528809e-01 5.743427872657775879e-01 5.628921985626220703e-01 5.486565828323364258e-01 5.323717594146728516e-01 5.346404314041137695e-01 5.695972442626953125e-01 5.931772589683532715e-01 6.142962574958801270e-01 6.303083300590515137e-01 6.446285843849182129e-01 6.503513455390930176e-01 6.505614519119262695e-01 6.450760960578918457e-01 6.359680294990539551e-01 6.269795894622802734e-01 6.190353631973266602e-01 6.109174489974975586e-01 6.023523807525634766e-01 5.937483906745910645e-01 5.867327451705932617e-01 5.773288607597351074e-01 5.655827522277832031e-01 5.502254366874694824e-01 5.321447849273681641e-01 5.178050398826599121e-01 5.344623923301696777e-01 5.589216947555541992e-01 5.828534364700317383e-01 6.071512699127197266e-01 6.278948187828063965e-01 6.506717205047607422e-01 6.719492673873901367e-01 6.884956359863281250e-01 7.023085951805114746e-01 7.103226780891418457e-01 7.091645598411560059e-01 6.989816427230834961e-01 6.825588345527648926e-01 6.675686836242675781e-01 6.552792191505432129e-01 6.425458788871765137e-01 6.282580494880676270e-01 6.112158298492431641e-01 5.919993519783020020e-01 5.692912936210632324e-01 5.444543957710266113e-01 5.169971585273742676e-01 4.882571697235107422e-01 4.759223163127899170e-01 5.041874051094055176e-01 5.317592024803161621e-01 5.532075762748718262e-01 5.686268210411071777e-01 5.834883451461791992e-01 5.934320092201232910e-01 5.974597930908203125e-01 5.948877930641174316e-01 5.872790217399597168e-01 5.835070610046386719e-01 5.823799371719360352e-01 5.993601679801940918e-01 6.083504557609558105e-01 6.152349114418029785e-01 6.189874410629272461e-01 6.218974590301513672e-01 6.231521368026733398e-01 6.198651790618896484e-01 6.121930480003356934e-01 6.020562052726745605e-01 5.881286859512329102e-01 5.796133279800415039e-01 5.825997591018676758e-01 5.910041332244873047e-01 6.066532731056213379e-01 6.235138773918151855e-01 6.382038593292236328e-01 6.443334817886352539e-01
6.253271102905273438e-01 6.410818696022033691e-01 6.491680145263671875e-01 6.546980142593383789e-01 6.556683778762817383e-01 6.479306817054748535e-01 6.319233179092407227e-01 6.113862395286560059e-01 5.865424871444702148e-01 5.602610111236572266e-01 5.351067185401916504e-01 5.394944548606872559e-01 5.678870677947998047e-01 5.979750752449035645e-01 6.305093765258789062e-01 6.587708592414855957e-01 6.830283403396606445e-01 7.039297223091125488e-01 7.225890755653381348e-01 7.363681197166442871e-01 7.429913878440856934e-01 7.432803511619567871e-01 7.385820150375366211e-01 7.320235967636108398e-01 7.235410809516906738e-01 7.145061492919921875e-01 7.034731507301330566e-01 6.916161179542541504e-01 6.803697943687438965e-01 6.681218147277832031e-01 6.566492319107055664e-01 6.466003060340881348e-01 6.372565627098083496e-01 6.249353885650634766e-01 6.099474430084228516e-01 5.903757214546203613e-01 5.759563446044921875e-01 5.710068345069885254e-01 5.653499960899353027e-01 5.596801638603210449e-01 5.534151196479797363e-01 5.462459921836853027e-01 5.368654727935791016e-01 5.232950448989868164e-01 5.056903362274169922e-01 5.119586586952209473e-01 5.462372899055480957e-01 5.749632716178894043e-01 5.979257225990295410e-01 6.176787018775939941e-01 6.328810453414916992e-01 6.432607769966125488e-01 6.467592120170593262e-01 6.447367072105407715e-01 6.377325654029846191e-01 6.290327310562133789e-01 6.213876008987426758e-01 6.138548851013183594e-01 6.054364442825317383e-01 5.965507030487060547e-01 5.879982113838195801e-01 5.804078578948974609e-01 5.695406198501586914e-01 5.548456311225891113e-01 5.398547649383544922e-01 5.223171114921569824e-01 5.132908225059509277e-01 5.344671010971069336e-01 5.566025972366333008e-01 5.762698054313659668e-01 5.969355106353759766e-01 6.172809004783630371e-01 6.358703970909118652e-01 6.553055644035339355e-01 6.714664101600646973e-01 6.831688880920410156e-01 6.930693387985229492e-01 6.934739947319030762e-01 6.858378648757934570e-01 6.708531379699707031e-01 6.572062969207763672e-01 6.458709836006164551e-01 6.343652606010437012e-01 6.200100183486938477e-01 6.042156815528869629e-01 5.858016610145568848e-01 5.631177425384521484e-01 5.380758047103881836e-01 5.099548697471618652e-01 4.797919094562530518e-01 4.607329368591308594e-01 4.844502806663513184e-01 5.121034979820251465e-01 5.379223227500915527e-01 5.574122667312622070e-01 5.750086903572082520e-01 5.863053798675537109e-01 5.922533869743347168e-01 5.905789136886596680e-01 5.836382508277893066e-01 5.774466395378112793e-01 5.834407806396484375e-01 6.039662957191467285e-01 6.204817295074462891e-01 6.330392360687255859e-01 6.418828368186950684e-01 6.462334990501403809e-01 6.459546089172363281e-01 6.433115601539611816e-01 6.324259638786315918e-01 6.274674534797668457e-01 6.118690967559814453e-01 5.979844331741333008e-01 6.041219830513000488e-01 6.280771493911743164e-01 6.504749655723571777e-01 6.691404581069946289e-01 6.832459568977355957e-01 6.907855272293090820e-01
6.420284509658813477e-01 6.524139046669006348e-01 6.599776148796081543e-01 6.608863472938537598e-01 6.549019813537597656e-01 6.450937986373901367e-01 6.259065270423889160e-01 6.044470071792602539e-01 5.798140168190002441e-01 5.537033677101135254e-01 5.322132110595703125e-01 5.478310585021972656e-01 5.744916200637817383e-01 6.021455526351928711e-01 6.304283142089843750e-01 6.556691527366638184e-01 6.740013360977172852e-01 6.912986636161804199e-01 7.041304111480712891e-01 7.099807262420654297e-01 7.150005102157592773e-01 7.136766314506530762e-01 7.075701355934143066e-01 7.011490464210510254e-01 6.940375566482543945e-01 6.847334504127502441e-01 6.727322340011596680e-01 6.586393117904663086e-01 6.480737328529357910e-01 6.351381540298461914e-01 6.240990757942199707e-01 6.142879724502563477e-01 6.031576991081237793e-01 5.896543264389038086e-01 5.732826590538024902e-01 5.537812113761901855e-01 5.388479828834533691e-01 5.347845554351806641e-01 5.299060344696044922e-01 5.240164399147033691e-01 5.178788900375366211e-01 5.094662308692932129e-01 4.976888298988342285e-01 4.852203130722045898e-01 4.919992089271545410e-01 5.295085906982421875e-01 5.576868057250976562e-01 5.812023878097534180e-01 6.028636693954467773e-01 6.214099526405334473e-01 6.357752680778503418e-01 6.428838372230529785e-01 6.450660228729248047e-01 6.418914794921875000e-01 6.347894072532653809e-01 6.268260478973388672e-01 6.183680295944213867e-01 6.100137233734130859e-01 6.023098826408386230e-01 5.931066274642944336e-01 5.852770209312438965e-01 5.754324197769165039e-01 5.630193948745727539e-01 5.480955243110656738e-01 5.326643586158752441e-01 5.159575939178466797e-01 5.094172358512878418e-01 5.288639664649963379e-01 5.476606488227844238e-01 5.660911798477172852e-01 5.847898721694946289e-01 6.021725535392761230e-01 6.195459365844726562e-01 6.371974945068359375e-01 6.543722748756408691e-01 6.661781668663024902e-01 6.772936582565307617e-01 6.800995469093322754e-01 6.730796098709106445e-01 6.614942550659179688e-01 6.490076780319213867e-01 6.384053230285644531e-01 6.270365118980407715e-01 6.137312650680541992e-01 5.971373319625854492e-01 5.796328186988830566e-01 5.578677058219909668e-01 5.323336124420166016e-01 5.026924014091491699e-01 4.717770814895629883e-01 4.486074149608612061e-01 4.658128619194030762e-01 4.945049583911895752e-01 5.215416550636291504e-01 5.452121496200561523e-01 5.620911717414855957e-01 5.757077336311340332e-01 5.816498994827270508e-01 5.804633498191833496e-01 5.763083696365356445e-01 5.682081580162048340e-01 5.800049901008605957e-01 6.058807373046875000e-01 6.269590258598327637e-01 6.418983340263366699e-01 6.582332253456115723e-01 6.669759750366210938e-01 6.699461340904235840e-01 6.667622923851013184e-01 6.616635918617248535e-01 6.505484580993652344e-01 6.408624053001403809e-01 6.410595178604125977e-01 6.622534394264221191e-01 6.819819211959838867e-01 6.965180635452270508e-01 7.060697078704833984e-01 7.127571105957031250e-01 7.201892733573913574e-01
6.521587967872619629e-01 6.590868830680847168e-01 6.609548330307006836e-01 6.580426096916198730e-01 6.512179374694824219e-01 6.378791928291320801e-01 6.180959939956665039e-01 5.964930653572082520e-01 5.733291506767272949e-01 5.477802753448486328e-01 5.331273674964904785e-01 5.575376749038696289e-01 5.861591100692749023e-01 6.111098527908325195e-01 6.339318156242370605e-01 6.564326882362365723e-01 6.722090244293212891e-01 6.832723021507263184e-01 6.916485428810119629e-01 6.938670873641967773e-01 6.907289624214172363e-01 6.853737235069274902e-01 6.786802411079406738e-01 6.716696023941040039e-01 6.653735637664794922e-01 6.554889678955078125e-01 6.414569616317749023e-01 6.267684102058410645e-01 6.159397363662719727e-01 6.055820584297180176e-01 5.961154103279113770e-01 5.853390097618103027e-01 5.737381577491760254e-01 5.580136775970458984e-01 5.403228402137756348e-01 5.200084447860717773e-01 5.025525689125061035e-01 4.980920553207397461e-01 4.939677119255065918e-01 4.882027506828308105e-01 4.803374707698822021e-01 4.676916301250457764e-01 4.561268091201782227e-01 4.751832783222198486e-01 5.115467905998229980e-01 5.414146184921264648e-01 5.670093297958374023e-01 5.895112752914428711e-01 6.107016205787658691e-01 6.289242506027221680e-01 6.410688757896423340e-01 6.463080644607543945e-01 6.459034085273742676e-01 6.405845880508422852e-01 6.332932710647583008e-01 6.257659792900085449e-01 6.176253557205200195e-01 6.082232594490051270e-01 6.002538204193115234e-01 5.926839709281921387e-01 5.841773152351379395e-01 5.725605487823486328e-01 5.586290955543518066e-01 5.431492924690246582e-01 5.261059999465942383e-01 5.099480152130126953e-01 5.036519765853881836e-01 5.203352570533752441e-01 5.373814702033996582e-01 5.538601279258728027e-01 5.703809261322021484e-01 5.883711576461791992e-01 6.048408150672912598e-01 6.214351654052734375e-01 6.375870108604431152e-01 6.519151926040649414e-01 6.630829572677612305e-01 6.655000448226928711e-01 6.625481843948364258e-01 6.558521986007690430e-01 6.466360092163085938e-01 6.361410021781921387e-01 6.246341466903686523e-01 6.110605001449584961e-01 5.938060283660888672e-01 5.753427147865295410e-01 5.534767508506774902e-01 5.278665423393249512e-01 4.975068569183349609e-01 4.668574631214141846e-01 4.393044114112854004e-01 4.482178986072540283e-01 4.780122339725494385e-01 5.051743388175964355e-01 5.311909914016723633e-01 5.520545244216918945e-01 5.643734931945800781e-01 5.696952342987060547e-01 5.680845379829406738e-01 5.608631372451782227e-01 5.548510551452636719e-01 5.756601691246032715e-01 6.055611371994018555e-01 6.304110288619995117e-01 6.528816223144531250e-01 6.710033416748046875e-01 6.834135055541992188e-01 6.917101740837097168e-01 6.931194067001342773e-01 6.905095577239990234e-01 6.848458647727966309e-01 6.840959787368774414e-01 6.939135789871215820e-01 7.083671689033508301e-01 7.190124392509460449e-01 7.273941040039062500e-01 7.330858707427978516e-01 7.382393479347229004e-01 7.442817091941833496e-01
6.581748723983764648e-01 6.608297824859619141e-01 6.587359309196472168e-01 6.574145555496215820e-01 6.471350193023681641e-01 6.296697854995727539e-01 6.098245978355407715e-01 5.888230204582214355e-01 5.668922066688537598e-01 5.430310964584350586e-01 5.381208658218383789e-01 5.693961381912231445e-01 5.945198535919189453e-01 6.179950833320617676e-01 6.332814097404479980e-01 6.472672820091247559e-01 6.600622534751892090e-01 6.672613620758056641e-01 6.708206534385681152e-01 6.692330837249755859e-01 6.642929315567016602e-01 6.589701175689697266e-01 6.538404226303100586e-01 6.472074985504150391e-01 6.406087279319763184e-01 6.280692219734191895e-01 6.130380034446716309e-01 5.991580486297607422e-01 5.898160934448242188e-01 5.806366801261901855e-01 5.713285803794860840e-01 5.605791807174682617e-01 5.477834939956665039e-01 5.305344462394714355e-01 5.112888216972351074e-01 4.903535842895507812e-01 4.712845087051391602e-01 4.626091718673706055e-01 4.582149386405944824e-01 4.499150812625885010e-01 4.383524060249328613e-01 4.319154620170593262e-01 4.588015675544738770e-01 4.944231510162353516e-01 5.270785093307495117e-01 5.538730621337890625e-01 5.784657001495361328e-01 6.007553935050964355e-01 6.208892464637756348e-01 6.376450061798095703e-01 6.480329632759094238e-01 6.522211432456970215e-01 6.505455970764160156e-01 6.445690989494323730e-01 6.371304392814636230e-01 6.296579241752624512e-01 6.211594939231872559e-01 6.111732721328735352e-01 6.026929020881652832e-01 5.938100218772888184e-01 5.839337110519409180e-01 5.714064240455627441e-01 5.566987991333007812e-01 5.410294532775878906e-01 5.248948931694030762e-01 5.069684386253356934e-01 4.958525896072387695e-01 5.096734166145324707e-01 5.240647196769714355e-01 5.395228862762451172e-01 5.537462830543518066e-01 5.707589387893676758e-01 5.885354876518249512e-01 6.053121685981750488e-01 6.211425662040710449e-01 6.355374455451965332e-01 6.467469930648803711e-01 6.529843211174011230e-01 6.550929546356201172e-01 6.534931063652038574e-01 6.477432847023010254e-01 6.390765905380249023e-01 6.265006661415100098e-01 6.103330254554748535e-01 5.946114063262939453e-01 5.751668214797973633e-01 5.514743924140930176e-01 5.249713063240051270e-01 4.950360655784606934e-01 4.619216620922088623e-01 4.308492243289947510e-01 4.364703893661499023e-01 4.661022126674652100e-01 4.936942160129547119e-01 5.185552239418029785e-01 5.382855534553527832e-01 5.501732230186462402e-01 5.545108914375305176e-01 5.521417260169982910e-01 5.438238382339477539e-01 5.448932647705078125e-01 5.764341354370117188e-01 6.063318848609924316e-01 6.354412436485290527e-01 6.604219079017639160e-01 6.808609366416931152e-01 6.980901956558227539e-01 7.110310792922973633e-01 7.195806503295898438e-01 7.264990210533142090e-01 7.306078672409057617e-01 7.319432497024536133e-01 7.375028133392333984e-01 7.429917454719543457e-01 7.468472719192504883e-01 7.518908381462097168e-01 7.574806809425354004e-01 7.605996727943420410e-01 7.638073563575744629e-01
6.581907272338867188e-01 6.572920680046081543e-01 6.556730866432189941e-01 6.475400328636169434e-01 6.355950832366943359e-01 6.190079450607299805e-01 6.009337902069091797e-01 5.791236758232116699e-01 5.581754446029663086e-01 5.392457842826843262e-01 5.504852533340454102e-01 5.816091895103454590e-01 6.064082980155944824e-01 6.256704926490783691e-01 6.374529600143432617e-01 6.429649591445922852e-01 6.477230787277221680e-01 6.500014662742614746e-01 6.477656364440917969e-01 6.433155536651611328e-01 6.385843753814697266e-01 6.358354091644287109e-01 6.315229535102844238e-01 6.263032555580139160e-01 6.185243725776672363e-01 6.042765378952026367e-01 5.874296426773071289e-01 5.748281478881835938e-01 5.670803189277648926e-01 5.580176115036010742e-01 5.482230782508850098e-01 5.369713902473449707e-01 5.206412076950073242e-01 5.019040107727050781e-01 4.811049699783325195e-01 4.586844444274902344e-01 4.352045655250549316e-01 4.241640269756317139e-01 4.177775084972381592e-01 4.078208506107330322e-01 4.050751328468322754e-01 4.441645443439483643e-01 4.811799228191375732e-01 5.120988488197326660e-01 5.421331524848937988e-01 5.686210989952087402e-01 5.906654000282287598e-01 6.145423650741577148e-01 6.336640715599060059e-01 6.479111909866333008e-01 6.573421359062194824e-01 6.596965193748474121e-01 6.560680270195007324e-01 6.500238180160522461e-01 6.430298089981079102e-01 6.352232098579406738e-01 6.266469955444335938e-01 6.169587373733520508e-01 6.069379448890686035e-01 5.960685610771179199e-01 5.850518345832824707e-01 5.719674825668334961e-01 5.569935441017150879e-01 5.411058664321899414e-01 5.234071016311645508e-01 5.046756267547607422e-01 4.883822202682495117e-01 4.948501586914062500e-01 5.076072812080383301e-01 5.203608870506286621e-01 5.323692560195922852e-01 5.464693903923034668e-01 5.658753514289855957e-01 5.846673250198364258e-01 6.030921339988708496e-01 6.182008385658264160e-01 6.306887865066528320e-01 6.377221345901489258e-01 6.439983844757080078e-01 6.488022804260253906e-01 6.491075158119201660e-01 6.429285407066345215e-01 6.314573884010314941e-01 6.142317652702331543e-01 5.952502489089965820e-01 5.740574002265930176e-01 5.481488704681396484e-01 5.207716226577758789e-01 4.897384941577911377e-01 4.566168785095214844e-01 4.252687990665435791e-01 4.276758134365081787e-01 4.579688310623168945e-01 4.845518767833709717e-01 5.090759992599487305e-01 5.265974998474121094e-01 5.359365344047546387e-01 5.378333330154418945e-01 5.319844484329223633e-01 5.257748365402221680e-01 5.485059618949890137e-01 5.800731182098388672e-01 6.096519827842712402e-01 6.393256187438964844e-01 6.669712662696838379e-01 6.917400360107421875e-01 7.135184407234191895e-01 7.314337491989135742e-01 7.457421422004699707e-01 7.558267116546630859e-01 7.644909024238586426e-01 7.691268920898437500e-01 7.707512974739074707e-01 7.723298668861389160e-01 7.753807902336120605e-01 7.777107357978820801e-01 7.795552611351013184e-01 7.817204594612121582e-01 7.837329506874084473e-01
6.505992412567138672e-01 6.475739479064941406e-01 6.443619132041931152e-01 6.337347030639648438e-01 6.204110980033874512e-01 5.994610786437988281e-01 5.872941613197326660e-01 5.669949054718017578e-01 5.466217994689941406e-01 5.333104133605957031e-01 5.655596852302551270e-01 5.942298173904418945e-01 6.168041825294494629e-01 6.327448487281799316e-01 6.399810314178466797e-01 6.405442357063293457e-01 6.363276243209838867e-01 6.298661828041076660e-01 6.242082715034484863e-01 6.193225383758544922e-01 6.153808832168579102e-01 6.120687127113342285e-01 6.067311167716979980e-01 6.004404425621032715e-01 5.892698764801025391e-01 5.744342803955078125e-01 5.612411499023437500e-01 5.511060953140258789e-01 5.448673367500305176e-01 5.348753333091735840e-01 5.236809253692626953e-01 5.085794925689697266e-01 4.881606101989746094e-01 4.668498933315277100e-01 4.396513998508453369e-01 4.101867675781250000e-01 3.765066266059875488e-01 3.676050305366516113e-01 3.668767809867858887e-01 3.937416374683380127e-01 4.347530603408813477e-01 4.709212779998779297e-01 5.017504692077636719e-01 5.306864976882934570e-01 5.593137145042419434e-01 5.864264965057373047e-01 6.098706722259521484e-01 6.317885518074035645e-01 6.500194668769836426e-01 6.627687215805053711e-01 6.690946817398071289e-01 6.689674854278564453e-01 6.636425256729125977e-01 6.570160388946533203e-01 6.495438814163208008e-01 6.410638093948364258e-01 6.320278048515319824e-01 6.223593950271606445e-01 6.109142303466796875e-01 5.977578163146972656e-01 5.846078991889953613e-01 5.708197951316833496e-01 5.567597150802612305e-01 5.396367907524108887e-01 5.207694768905639648e-01 5.004670023918151855e-01 4.791840314865112305e-01 4.711774885654449463e-01 4.861254394054412842e-01 5.014218688011169434e-01 5.142409801483154297e-01 5.287061333656311035e-01 5.449221134185791016e-01 5.642459392547607422e-01 5.845966935157775879e-01 6.014018058776855469e-01 6.170247197151184082e-01 6.305003762245178223e-01 6.405222415924072266e-01 6.465765237808227539e-01 6.471548676490783691e-01 6.426362991333007812e-01 6.323236227035522461e-01 6.161562800407409668e-01 5.959882140159606934e-01 5.735691189765930176e-01 5.472040772438049316e-01 5.188388228416442871e-01 4.864962399005889893e-01 4.514335095882415771e-01 4.185237586498260498e-01 4.193460345268249512e-01 4.478788375854492188e-01 4.745606184005737305e-01 4.975749850273132324e-01 5.121471285820007324e-01 5.186258554458618164e-01 5.176558494567871094e-01 5.118332505226135254e-01 5.240931510925292969e-01 5.537257194519042969e-01 5.838616490364074707e-01 6.124092340469360352e-01 6.434801816940307617e-01 6.725135445594787598e-01 7.004813551902770996e-01 7.252879738807678223e-01 7.460415959358215332e-01 7.634726166725158691e-01 7.773457169532775879e-01 7.890593409538269043e-01 7.975570559501647949e-01 8.042833209037780762e-01 8.062208294868469238e-01 8.093063235282897949e-01 8.126916289329528809e-01 8.114557266235351562e-01 8.103974461555480957e-01 8.095005750656127930e-01
6.498000621795654297e-01 6.412684917449951172e-01 6.309313178062438965e-01 6.207072734832763672e-01 6.069620847702026367e-01 5.909287929534912109e-01 5.742760896682739258e-01 5.553424954414367676e-01 5.361296534538269043e-01 5.324113965034484863e-01 5.738170742988586426e-01 6.021423339843750000e-01 6.241452097892761230e-01 6.379538178443908691e-01 6.438250541687011719e-01 6.422871351242065430e-01 6.341674327850341797e-01 6.243588924407958984e-01 6.163494586944580078e-01 6.109935045242309570e-01 6.061844825744628906e-01 6.008681654930114746e-01 5.946787595748901367e-01 5.878422260284423828e-01 5.780239105224609375e-01 5.666306018829345703e-01 5.529708266258239746e-01 5.384437441825866699e-01 5.240877866744995117e-01 5.092706084251403809e-01 4.947427809238433838e-01 4.787314534187316895e-01 4.555279314517974854e-01 4.287380576133728027e-01 3.922765254974365234e-01 3.468474149703979492e-01 3.133543133735656738e-01 3.231534957885742188e-01 3.738527894020080566e-01 4.160493612289428711e-01 4.521901905536651611e-01 4.848210513591766357e-01 5.167748332023620605e-01 5.442634224891662598e-01 5.737183094024658203e-01 6.003327369689941406e-01 6.230534315109252930e-01 6.430654525756835938e-01 6.609605550765991211e-01 6.734529137611389160e-01 6.794250011444091797e-01 6.784096360206604004e-01 6.720886826515197754e-01 6.639077067375183105e-01 6.557271480560302734e-01 6.469325423240661621e-01 6.376399397850036621e-01 6.264116764068603516e-01 6.136249899864196777e-01 5.993054509162902832e-01 5.851508975028991699e-01 5.702357292175292969e-01 5.552780032157897949e-01 5.379778146743774414e-01 5.180720686912536621e-01 4.952872395515441895e-01 4.726505279541015625e-01 4.554205536842346191e-01 4.686465263366699219e-01 4.857997298240661621e-01 5.005519986152648926e-01 5.147548317909240723e-01 5.273386836051940918e-01 5.425586700439453125e-01 5.621304512023925781e-01 5.805084109306335449e-01 5.977844595909118652e-01 6.132296919822692871e-01 6.246839165687561035e-01 6.305980086326599121e-01 6.309688091278076172e-01 6.303104758262634277e-01 6.219860911369323730e-01 6.116550564765930176e-01 5.923575162887573242e-01 5.694404840469360352e-01 5.420491695404052734e-01 5.126580595970153809e-01 4.804538488388061523e-01 4.450913071632385254e-01 4.101626276969909668e-01 4.106462001800537109e-01 4.399335384368896484e-01 4.654309153556823730e-01 4.853594005107879639e-01 4.975655972957611084e-01 5.005138516426086426e-01 4.971429407596588135e-01 5.017043948173522949e-01 5.313941836357116699e-01 5.612465143203735352e-01 5.912120342254638672e-01 6.199671626091003418e-01 6.491658687591552734e-01 6.784132122993469238e-01 7.073795199394226074e-01 7.339272499084472656e-01 7.575058937072753906e-01 7.792251706123352051e-01 7.975970506668090820e-01 8.126700520515441895e-01 8.244388103485107422e-01 8.344578146934509277e-01 8.418709039688110352e-01 8.466063737869262695e-01 8.499214053153991699e-01 8.523136377334594727e-01 8.505465984344482422e-01 8.394523262977600098e-01
6.370104551315307617e-01 6.276436448097229004e-01 6.166579127311706543e-01 6.044780015945434570e-01 5.905421972274780273e-01 5.746976733207702637e-01 5.579913258552551270e-01 5.404576063156127930e-01 5.239749550819396973e-01 5.419360399246215820e-01 5.819782018661499023e-01 6.108061075210571289e-01 6.325755119323730469e-01 6.440895199775695801e-01 6.474031209945678711e-01 6.437230706214904785e-01 6.351042985916137695e-01 6.246957778930664062e-01 6.178725361824035645e-01 6.123998761177062988e-01 6.060810685157775879e-01 5.997709631919860840e-01 5.924897789955139160e-01 5.848788619041442871e-01 5.750598311424255371e-01 5.627422928810119629e-01 5.490327477455139160e-01 5.339486002922058105e-01 5.163017511367797852e-01 4.958360195159912109e-01 4.734890162944793701e-01 4.492545723915100098e-01 4.205549359321594238e-01 3.827176690101623535e-01 3.402317464351654053e-01 3.039579391479492188e-01 3.100482523441314697e-01 3.586543798446655273e-01 4.007828533649444580e-01 4.359172880649566650e-01 4.666113555431365967e-01 4.996962547302246094e-01 5.305485129356384277e-01 5.597093701362609863e-01 5.872577428817749023e-01 6.129486560821533203e-01 6.356037259101867676e-01 6.552021503448486328e-01 6.724425554275512695e-01 6.836174726486206055e-01 6.885803341865539551e-01 6.865433454513549805e-01 6.783000826835632324e-01 6.689361333847045898e-01 6.594039797782897949e-01 6.498692631721496582e-01 6.391248703002929688e-01 6.265814304351806641e-01 6.128322482109069824e-01 5.983343124389648438e-01 5.839982032775878906e-01 5.690141916275024414e-01 5.536615848541259766e-01 5.353516936302185059e-01 5.141195654869079590e-01 4.905881583690643311e-01 4.657274782657623291e-01 4.435058534145355225e-01 4.491400122642517090e-01 4.707883298397064209e-01 4.887248873710632324e-01 5.034177303314208984e-01 5.173351764678955078e-01 5.276611447334289551e-01 5.393769741058349609e-01 5.574814677238464355e-01 5.729688405990600586e-01 5.865900516510009766e-01 6.009081602096557617e-01 6.119422316551208496e-01 6.176841259002685547e-01 6.132923960685729980e-01 6.130934953689575195e-01 6.024503707885742188e-01 5.857346653938293457e-01 5.638611316680908203e-01 5.372686982154846191e-01 5.071100592613220215e-01 4.724944829940795898e-01 4.337372779846191406e-01 3.959306478500366211e-01 3.980627059936523438e-01 4.303137958049774170e-01 4.549849331378936768e-01 4.721673130989074707e-01 4.807770550251007080e-01 4.815582633018493652e-01 4.818335473537445068e-01 5.097667574882507324e-01 5.410132408142089844e-01 5.700969696044921875e-01 6.005071401596069336e-01 6.281617879867553711e-01 6.561923027038574219e-01 6.836884617805480957e-01 7.127578258514404297e-01 7.391452193260192871e-01 7.659264802932739258e-01 7.936027646064758301e-01 8.159011006355285645e-01 8.319318890571594238e-01 8.448566198348999023e-01 8.576962947845458984e-01 8.655269742012023926e-01 8.711373209953308105e-01 8.755413293838500977e-01 8.707218766212463379e-01 8.672158718109130859e-01 8.617272973060607910e-01
6.204820871353149414e-01 6.106587648391723633e-01 5.997320413589477539e-01 5.870102047920227051e-01 5.719707012176513672e-01 5.563226342201232910e-01 5.383139848709106445e-01 5.201922059059143066e-01 5.101217031478881836e-01 5.517233610153198242e-01 5.872253179550170898e-01 6.147629022598266602e-01 6.339959502220153809e-01 6.473346948623657227e-01 6.513952612876892090e-01 6.454072594642639160e-01 6.350066661834716797e-01 6.256928443908691406e-01 6.183431744575500488e-01 6.118726730346679688e-01 6.025653481483459473e-01 5.917280316352844238e-01 5.884979963302612305e-01 5.792454481124877930e-01 5.682337284088134766e-01 5.552798509597778320e-01 5.418581962585449219e-01 5.261037945747375488e-01 5.082876086235046387e-01 4.885746240615844727e-01 4.664063453674316406e-01 4.392258524894714355e-01 4.062490761280059814e-01 3.664584457874298096e-01 3.226976692676544189e-01 2.985713481903076172e-01 3.440544903278350830e-01 3.832498788833618164e-01 4.183309674263000488e-01 4.504703283309936523e-01 4.822594523429870605e-01 5.130735039710998535e-01 5.429896712303161621e-01 5.707899332046508789e-01 5.996617674827575684e-01 6.240259408950805664e-01 6.474524736404418945e-01 6.681790947914123535e-01 6.852040290832519531e-01 6.948475837707519531e-01 6.976646184921264648e-01 6.942821741104125977e-01 6.844646334648132324e-01 6.734564900398254395e-01 6.619223356246948242e-01 6.500951647758483887e-01 6.371686458587646484e-01 6.239181756973266602e-01 6.095899939537048340e-01 5.949043631553649902e-01 5.789322853088378906e-01 5.644087791442871094e-01 5.500589609146118164e-01 5.311062932014465332e-01 5.086324214935302734e-01 4.843569397926330566e-01 4.575829207897186279e-01 4.327085316181182861e-01 4.277777671813964844e-01 4.549395143985748291e-01 4.762552678585052490e-01 4.941572248935699463e-01 5.089646577835083008e-01 5.197659730911254883e-01 5.299467444419860840e-01 5.357444882392883301e-01 5.399971008300781250e-01 5.539959669113159180e-01 5.664461255073547363e-01 5.799830555915832520e-01 5.911079049110412598e-01 5.966065526008605957e-01 5.942196846008300781e-01 5.848878622055053711e-01 5.731857419013977051e-01 5.543462038040161133e-01 5.303546190261840820e-01 5.001171231269836426e-01 4.632984697818756104e-01 4.199189543724060059e-01 3.787878751754760742e-01 3.875208795070648193e-01 4.178470373153686523e-01 4.434507191181182861e-01 4.563923776149749756e-01 4.602724313735961914e-01 4.612453281879425049e-01 4.858292639255523682e-01 5.167291164398193359e-01 5.458149909973144531e-01 5.772092342376708984e-01 6.086134910583496094e-01 6.365481615066528320e-01 6.635693907737731934e-01 6.914669275283813477e-01 7.204397320747375488e-01 7.463370561599731445e-01 7.732390165328979492e-01 8.008738756179809570e-01 8.262336254119873047e-01 8.476505875587463379e-01 8.655431866645812988e-01 8.794375658035278320e-01 8.897498846054077148e-01 8.938590884208679199e-01 8.941231966018676758e-01 8.964729309082031250e-01 8.908488750457763672e-01 8.838411569595336914e-01
6.070410013198852539e-01 5.962908864021301270e-01 5.898092389106750488e-01 5.755192637443542480e-01 5.572620034217834473e-01 5.408885478973388672e-01 5.211503505706787109e-01 5.000500679016113281e-01 5.043279528617858887e-01 5.526108741760253906e-01 5.896118283271789551e-01 6.189193129539489746e-01 6.380528807640075684e-01 6.511433720588684082e-01 6.549520492553710938e-01 6.481713652610778809e-01 6.376414299011230469e-01 6.274714469909667969e-01 6.191513538360595703e-01 6.114219427108764648e-01 6.033137440681457520e-01 5.938060283660888672e-01 5.838436484336853027e-01 5.737896561622619629e-01 5.623887777328491211e-01 5.489412546157836914e-01 5.352991223335266113e-01 5.191584229469299316e-01 5.010222792625427246e-01 4.809388518333435059e-01 4.579785466194152832e-01 4.297617673873901367e-01 3.941170871257781982e-01 3.527128994464874268e-01 3.127464354038238525e-01 3.173582851886749268e-01 3.634175956249237061e-01 3.996759057044982910e-01 4.343830049037933350e-01 4.653884172439575195e-01 4.949953556060791016e-01 5.245615839958190918e-01 5.532032251358032227e-01 5.816830992698669434e-01 6.098116040229797363e-01 6.352005004882812500e-01 6.597188711166381836e-01 6.811283230781555176e-01 6.976177692413330078e-01 7.063370943069458008e-01 7.064350843429565430e-01 7.005195021629333496e-01 6.885532736778259277e-01 6.755856871604919434e-01 6.631708741188049316e-01 6.505697369575500488e-01 6.365636587142944336e-01 6.228018999099731445e-01 6.079133749008178711e-01 5.920469164848327637e-01 5.766946673393249512e-01 5.615639686584472656e-01 5.451022982597351074e-01 5.263751745223999023e-01 5.031024217605590820e-01 4.790028035640716553e-01 4.519559741020202637e-01 4.275439083576202393e-01 4.266279637813568115e-01 4.371557533740997314e-01 4.625662863254547119e-01 4.831602871417999268e-01 5.035856366157531738e-01 5.179225206375122070e-01 5.298908948898315430e-01 5.366961359977722168e-01 5.406630039215087891e-01 5.394108295440673828e-01 5.372063517570495605e-01 5.407004952430725098e-01 5.503666996955871582e-01 5.605219006538391113e-01 5.666176080703735352e-01 5.655150413513183594e-01 5.564934015274047852e-01 5.423533320426940918e-01 5.225657224655151367e-01 4.937345683574676514e-01 4.560713171958923340e-01 4.099211990833282471e-01 3.639566600322723389e-01 3.745976090431213379e-01 4.050617814064025879e-01 4.243884980678558350e-01 4.342965185642242432e-01 4.392107129096984863e-01 4.634757637977600098e-01 4.961480498313903809e-01 5.269123911857604980e-01 5.561255216598510742e-01 5.878180861473083496e-01 6.176534891128540039e-01 6.464385390281677246e-01 6.747198104858398438e-01 7.030894160270690918e-01 7.304028868675231934e-01 7.573336362838745117e-01 7.832691669464111328e-01 8.114560842514038086e-01 8.379868865013122559e-01 8.623042106628417969e-01 8.825374841690063477e-01 8.972645998001098633e-01 9.066223502159118652e-01 9.116832017898559570e-01 9.121202826499938965e-01 9.057979583740234375e-01 8.968282341957092285e-01 8.870247006416320801e-01
